ply
format ascii 1.0
element vertex 1301
property float x
property float y
property float z
property uchar red
property uchar green
property uchar blue
end_header
0.549219 0.732264 4.30693 223 218 215
0.714156 0.778271 4.42426 160 148 141
-0.606875 0.641139 4.02054 218 212 206
-0.151891 0.682861 4.06172 225 217 214
0.439364 0.770721 4.24943 228 220 215
0.732033 0.827509 4.46432 188 178 169
0.566427 0.794975 4.30629 161 151 140
0.470007 0.803029 4.25826 165 156 148
0.729732 0.85109 4.45895 50 48 42
0.130031 0.759052 4.11565 210 202 194
0.508454 0.81362 4.29038 212 202 196
0.226094 0.795667 4.15351 232 226 224
0.45801 0.831439 4.25079 161 150 140
0.00203267 0.784695 4.08192 187 178 168
0.165921 0.815395 4.12506 217 209 206
0.293047 0.83912 4.18116 163 154 143
-0.0815622 0.809618 4.07463 224 216 207
0.0708881 0.831163 4.0917 196 186 174
1.8617 -1.51197 5.67778 214 209 198
1.49056 -0.86905 4.77577 60 60 58
1.16598 -0.830093 4.71345 94 94 95
1.24944 -0.827006 4.69817 56 56 52
1.37787 -0.830112 4.72292 92 91 86
1.34585 -0.807797 4.72963 54 54 50
1.21018 -0.758545 4.70584 98 95 90
1.27073 -0.757459 4.71637 52 50 46
1.56486 -0.762031 4.75063 56 54 50
1.1629 -0.74576 4.73374 110 109 104
1.06596 -0.733228 4.69343 58 58 56
1.09298 -0.697938 4.68949 84 83 80
1.07649 -0.630284 4.68252 48 48 46
1.4168 -0.606556 4.69625 83 80 74
1.00865 -0.576628 4.6807 48 48 46
0.415419 -0.614043 5.11059 56 56 56
1.16694 -0.437028 4.6184 112 109 103
0.829347 -0.429441 4.67096 48 48 46
0.711024 -0.396525 4.66738 88 88 86
0.217003 -0.432307 5.08842 88 89 86
0.765853 -0.374211 4.66228 46 46 44
0.581396 -0.370327 4.69373 40 40 38
2.07785 -0.369489 5.05643 204 194 182
1.27176 -0.330107 4.62558 70 68 64
0.218279 -0.390733 5.02945 52 51 50
1.08334 -0.29462 4.57954 106 102 96
1.29119 -0.296372 4.61867 74 72 67
0.222983 -0.353322 5.05497 84 84 84
1.23696 -0.281994 4.60626 212 203 188
0.475298 -0.294204 4.64434 50 50 50
1.19053 -0.27634 4.60321 72 70 64
1.83599 -0.276 4.89475 206 198 185
1.02764 -0.258254 4.58009 78 72 68
1.75441 -0.261233 4.85933 80 75 70
0.791246 -0.241132 4.60404 36 34 31
1.17693 -0.229351 4.59179 66 65 62
1.12437 -0.224019 4.57633 70 67 61
1.06012 -0.219907 4.56378 70 66 60
0.458533 -0.23387 4.65057 100 100 98
0.996492 -0.209374 4.56211 74 72 64
0.580565 -0.217373 4.62301 48 48 48
0.739317 -0.202414 4.59097 34 33 30
0.479172 -0.196782 4.62103 95 95 93
0.524732 -0.179857 4.59971 45 45 44
1.02423 -0.165454 4.55859 76 72 65
1.15909 -0.136707 4.57934 67 66 62
1.31141 -0.126048 4.6292 77 72 67
0.874733 -0.112756 4.52468 74 72 66
1.14647 -0.0839827 4.57486 64 62 58
1.18752 -0.0830715 4.57831 210 198 180
2.28189 -0.0627781 5.2103 232 228 228
1.05945 -0.0589479 4.54163 94 91 85
0.741393 -0.0573995 4.48451 140 137 130
1.12758 -0.0377182 4.55509 67 65 60
1.1809 -0.0277736 4.57767 215 204 186
2.26764 -0.0192158 5.27262 224 218 220
0.183483 -0.0432216 4.58733 52 52 52
0.655043 -0.012438 4.44517 118 115 110
0.214718 -0.0190097 4.53777 108 107 104
0.580335 0.00437371 4.42763 115 113 108
0.778718 0.0139439 4.44374 72 68 62
0.25419 -0.0018115 4.53816 98 98 94
0.38781 0.00657796 4.433 90 89 84
0.667035 0.016122 4.42605 68 64 57
2.10099 0.042084 5.18851 220 214 211
2.4184 0.0628389 5.30866 202 194 194
2.60019 0.0697302 5.4042 200 192 192
1.18283 0.0601612 4.57571 208 196 180
1.91064 0.0737491 5.09829 68 66 62
2.30147 0.0842543 5.25421 241 234 233
2.64237 0.109309 5.39827 236 230 228
2.44186 0.112502 5.31666 218 210 210
2.54341 0.114692 5.35954 234 228 228
0.580131 0.0647505 4.39443 68 62 56
1.14981 0.0858401 4.56763 64 62 56
-1.00988 0.0278046 4.24942 128 122 112
2.20211 0.129047 5.21154 234 228 226
0.485022 0.0817499 4.37522 111 107 98
1.85701 0.121584 5.06277 230 226 226
0.323268 0.0821954 4.41347 105 101 91
0.418692 0.0848538 4.34636 110 104 96
2.6858 0.177097 5.43481 174 165 162
2.5368 0.176807 5.3553 174 166 164
2.37587 0.177309 5.27587 190 182 180
0.310893 0.110095 4.32401 64 60 53
-1.14304 0.0676579 4.20318 146 143 130
0.510249 0.129257 4.35938 99 96 88
2.59423 0.204384 5.36893 184 174 172
0.276466 0.129858 4.30936 116 112 106
2.13895 0.203113 5.19141 190 182 181
-1.08169 0.0811827 4.18347 87 82 72
2.42002 0.238036 5.29139 234 226 224
0.454106 0.16043 4.34902 58 54 50
0.332732 0.157984 4.30509 62 58 52
2.56037 0.254807 5.36625 230 222 222
0.164099 0.159901 4.29786 64 60 56
-1.10817 0.125886 4.1835 73 68 62
1.64091 0.247356 4.95104 174 166 167
0.0729221 0.178438 4.29024 95 91 84
-0.0457828 0.177517 4.28545 112 107 101
2.14345 0.280979 5.17662 234 226 224
-1.13241 0.137205 4.18313 84 78 72
2.39845 0.297833 5.29208 160 152 146
2.61087 0.306877 5.36713 198 190 184
-0.925285 0.158947 4.10865 110 106 100
0.122561 0.20847 4.28853 60 56 50
2.01382 0.304203 5.1592 222 214 213
-0.485162 0.182822 4.10594 106 101 91
-0.217951 0.201931 4.27773 69 64 58
-0.854806 0.176936 4.09927 70 66 60
0.664238 0.246837 4.4304 64 61 56
2.27076 0.334901 5.23544 236 230 231
1.90881 0.322827 5.0999 168 160 160
-0.616382 0.191574 4.0853 66 62 56
-0.136588 0.217431 4.27855 115 110 102
-1.04651 0.178126 4.13937 106 102 92
-0.966539 0.180249 4.10827 66 61 56
1.54842 0.323286 5.00555 166 158 156
-0.892609 0.192899 4.08725 102 97 91
-0.670954 0.209967 4.07051 94 90 82
2.38434 0.380425 5.2751 226 220 216
-0.612486 0.216119 4.07024 106 102 96
-0.975106 0.212359 4.10146 114 110 104
-0.832116 0.218605 4.07938 70 66 61
-0.776248 0.221071 4.067 66 62 56
-0.710527 0.222781 4.06817 58 55 48
-0.64978 0.228684 4.06743 68 64 58
0.463763 0.289371 4.34692 69 66 61
-1.08856 0.217688 4.1413 86 80 73
-0.593433 0.23679 4.06762 68 63 57
-0.538262 0.249821 4.11512 66 62 56
2.52385 0.434569 5.3907 119 111 104
-0.481147 0.252177 4.06447 66 62 55
2.01695 0.417697 5.15702 165 153 147
-0.83565 0.24665 4.06958 106 102 95
-0.723205 0.252339 4.06431 98 94 88
-1.01907 0.253632 4.10922 92 87 78
-0.811986 0.262865 4.05888 68 64 58
-0.754532 0.266373 4.06613 64 60 54
1.7605 0.434222 5.08691 228 222 222
1.84973 0.440227 5.11705 163 152 147
-0.580571 0.282322 4.06135 66 63 56
-0.522273 0.286652 4.04985 63 59 53
-0.3477 0.294175 4.04189 99 96 89
-0.459512 0.293325 4.03829 60 56 50
-0.246316 0.301865 4.0644 66 62 54
-0.408415 0.305837 4.03376 58 55 50
-0.943872 0.288319 4.09825 82 77 68
0.00139544 0.335487 4.15995 106 102 94
-1.14927 0.284813 4.116 82 82 80
-0.530065 0.315326 4.04869 96 92 86
2.23009 0.523287 5.23731 86 79 74
-0.901784 0.308679 4.08574 80 76 66
-0.175821 0.337843 4.05798 106 102 97
-0.620834 0.32054 4.05229 57 54 48
-0.292929 0.335259 4.04179 60 56 52
-0.566047 0.327127 4.04483 60 58 52
-0.00431534 0.358207 4.10798 68 64 58
-0.964747 0.313278 4.07405 244 237 228
-0.858602 0.32023 4.08304 77 74 68
-0.40727 0.336949 4.04127 86 82 76
-1.1017 0.314976 4.1139 220 212 200
-0.241754 0.350614 4.04289 62 60 56
0.323081 0.392385 4.20524 113 111 106
0.495085 0.407105 4.25775 132 130 124
1.86562 0.531805 5.14313 232 227 222
-1.12859 0.324198 4.10021 75 73 70
-0.736617 0.341237 4.06189 98 94 89
-0.0972649 0.376107 4.06683 60 58 54
0.1698 0.391076 4.13966 65 61 56
1.76661 0.544577 5.1279 156 144 135
-0.828902 0.346109 4.07533 106 103 94
1.69509 0.554422 5.11989 222 215 212
-1.01274 0.349288 4.08577 205 194 181
-0.776792 0.359645 4.06036 82 80 70
-0.161581 0.386377 4.04216 90 87 83
-0.837815 0.363839 4.02195 242 238 234
-0.0363184 0.412683 4.0601 94 92 88
-0.686829 0.387411 4.06664 82 80 72
-0.922968 0.388944 4.03799 198 190 181
1.5974 0.60748 5.09788 198 190 179
-0.63711 0.405111 4.05618 78 75 69
-0.742028 0.416254 4.01967 236 230 223
-0.589757 0.422054 4.0549 67 64 58
-0.664688 0.424096 4.04338 219 214 202
-0.54048 0.434282 4.06262 64 62 57
-0.477409 0.436077 4.05434 57 55 52
-0.359094 0.454843 4.05022 57 56 52
-0.825251 0.432683 4.02494 195 186 176
-0.503137 0.452919 4.06123 77 74 66
-0.569808 0.451434 4.05054 215 208 198
-0.71529 0.454588 4.00688 196 187 172
-0.635392 0.458709 4.01827 228 222 213
-0.746797 0.471722 4.01608 192 182 170
-0.444805 0.493325 4.05218 212 208 199
0.627632 0.583703 4.36942 180 174 164
0.455352 0.579662 4.27947 45 44 41
-0.602437 0.494864 4.01058 209 198 188
-0.775833 0.493314 4.00868 222 214 208
-0.172623 0.533642 4.09628 62 61 56
0.409403 0.585414 4.27043 48 48 44
-0.27558 0.533561 4.07678 210 204 197
-0.209557 0.54832 4.09009 192 188 178
-0.0218789 0.56238 4.13255 60 58 54
0.0326665 0.571145 4.15121 56 54 48
0.125842 0.56033 4.1299 41 39 36
0.222042 0.58525 4.1944 41 38 34
0.766611 0.654827 4.47742 169 160 154
-0.706311 0.519785 4.00262 246 240 236
-0.16422 0.562207 4.08476 207 201 194
-0.780783 0.52325 4.00213 200 192 180
0.4283 0.622123 4.26602 214 208 204
-0.455117 0.544868 4.02214 230 222 216
0.247002 0.60779 4.19482 164 158 146
0.00507348 0.593929 4.12185 192 186 172
-0.822254 0.535043 4.01489 198 187 176
0.15769 0.621265 4.1536 214 207 202
-0.535905 0.562969 3.99846 202 196 184
0.218967 0.635038 4.16976 222 214 212
0.402831 0.665461 4.2497 213 208 205
-0.251813 0.603551 4.05211 222 214 210
-0.626126 0.585969 4.00909 156 146 134
0.0636 0.640544 4.12179 210 202 196
-0.148846 0.637576 4.06987 191 183 178
0.147849 0.667856 4.13863 198 191 188
-0.372993 0.626105 4.0221 242 238 234
-0.233513 0.64375 4.04435 167 158 150
0.416514 0.711792 4.24604 172 162 158
0.502038 0.725516 4.2752 196 188 181
-0.295663 0.646503 4.03159 202 193 184
0.0332874 0.681099 4.10138 173 162 158
0.157136 0.698594 4.13757 240 235 234
0.247968 0.716296 4.17912 176 168 163
-0.0909212 0.681398 4.0774 241 234 234
0.201649 0.719234 4.1472 162 154 148
0.667857 0.790142 4.40441 222 217 215
-0.289058 0.684348 4.04423 176 166 156
-0.0195573 0.730408 4.08803 180 169 163
-0.0741837 0.722453 4.06353 160 150 144
0.663711 0.833109 4.4108 195 186 176
-0.208924 0.717855 4.04422 242 237 234
0.0554053 0.751649 4.09565 235 230 228
0.246256 0.782031 4.17179 238 234 230
0.642448 0.850731 4.39296 161 150 136
0.0925396 0.767628 4.10203 176 166 158
0.160437 0.775236 4.12949 171 162 155
0.343211 0.799163 4.20433 170 160 153
-0.260543 0.733375 4.02249 194 184 176
-0.327321 0.732172 4.02585 230 223 217
-0.469862 0.723776 3.99197 44 42 42
-0.197998 0.750559 4.03567 186 176 167
-0.116963 0.761566 4.06269 161 151 144
0.014408 0.77788 4.07621 191 182 173
0.532139 0.848982 4.31173 209 199 191
-0.176502 0.779638 4.04609 204 194 184
-0.0421265 0.7908 4.07184 232 225 220
0.203078 0.82156 4.13543 190 181 172
0.417529 0.861041 4.23025 169 156 144
0.155959 0.847153 4.13898 207 198 189
0.350015 0.904711 4.20472 22 19 19
2.29603 -0.618648 5.20479 214 206 196
-0.609808 0.446939 4.03725 218 214 200
0.594205 -0.926944 5.34517 208 204 193
1.89022 -0.31982 4.92379 198 189 178
0.516829 0.889897 4.31575 60 54 47
-0.109333 0.800605 4.03855 194 185 174
-0.0230874 0.83072 4.06654 176 166 155
1.03252 -0.910009 4.9179 58 58 56
1.17675 -0.834404 4.7253 92 92 93
1.25545 -0.83046 4.71911 57 56 52
1.41176 -0.829674 4.76981 85 84 78
1.46554 -0.828866 4.78753 90 88 82
1.63174 -0.7921 4.78236 104 101 98
1.21599 -0.762956 4.71929 98 95 90
0.614859 -0.852719 5.19424 61 61 59
1.27554 -0.75941 4.71449 54 53 49
1.50958 -0.761494 4.79127 94 90 86
1.1668 -0.743695 4.72958 110 108 102
1.09994 -0.697528 4.68941 88 87 83
0.947995 -0.693328 4.73501 49 49 47
0.426953 -0.738929 5.17975 194 192 180
1.07368 -0.633875 4.67997 50 50 48
0.932514 -0.625164 4.71085 76 75 73
1.01314 -0.581071 4.67837 49 49 47
2.42844 -0.514334 5.49453 214 204 192
0.825813 -0.430235 4.66785 48 48 46
0.270893 -0.459669 5.02976 51 51 49
0.68171 -0.416155 4.71453 86 86 84
0.767434 -0.379544 4.66267 44 44 42
0.154284 -0.438262 5.11725 61 60 58
0.58465 -0.37712 4.70565 43 43 41
1.91098 -0.3663 4.94153 81 76 70
0.590765 -0.349172 4.60505 84 84 82
1.2366 -0.277677 4.60544 210 200 182
0.464931 -0.287431 4.63817 53 53 52
0.788877 -0.238736 4.60752 36 36 32
0.460288 -0.229918 4.65491 100 99 97
0.578874 -0.221101 4.62038 50 50 49
1.27703 -0.206351 4.60825 80 76 70
0.742973 -0.204307 4.58988 38 37 34
1.68016 -0.195045 4.83426 80 78 72
0.477931 -0.201669 4.62342 94 94 92
1.2238 -0.178258 4.5877 214 200 181
0.526393 -0.185551 4.60112 49 49 48
0.320129 -0.0511166 4.53175 44 44 45
2.51477 -0.0200772 5.36435 232 226 228
0.497544 -0.0385411 4.47641 30 30 28
0.279248 -0.0214025 4.50702 50 50 50
2.52517 0.0523877 5.3662 192 184 184
2.54547 0.118813 5.36135 236 230 230
2.2142 0.13869 5.23254 226 219 218
-1.15803 0.141281 4.17482 136 133 126
1.99499 0.304512 5.13384 218 210 210
1.8312 0.313413 5.08725 216 208 207
2.59938 0.353895 5.35231 121 112 108
2.40089 0.389354 5.3017 226 220 216
2.46777 0.435532 5.32554 100 93 86
1.93602 0.415541 5.14756 228 223 223
-1.01913 0.251262 4.11225 86 81 72
-1.08028 0.274135 4.11386 232 226 214
1.37691 0.43248 4.9211 192 184 181
-0.941132 0.284927 4.09413 78 73 68
0.375918 0.35419 4.28108 143 140 134
-0.899007 0.305308 4.07838 74 70 62
0.328361 0.388847 4.20858 116 114 108
-0.964978 0.318839 4.0728 244 236 227
-1.01172 0.336464 4.06592 208 198 183
1.68762 0.550417 5.09507 222 215 211
-0.774725 0.357981 4.05877 74 70 63
-0.682395 0.383376 4.06518 74 72 65
1.52035 0.573816 5.04369 220 212 210
-0.838829 0.367887 4.0354 245 240 238
-1.0138 0.385518 4.06252 225 216 206
-0.668941 0.418987 4.04589 217 212 199
-0.741095 0.412145 4.01618 233 227 218
-0.590453 0.423579 4.0551 67 64 58
-0.53506 0.429661 4.05038 60 58 54
-0.824352 0.434557 4.02539 196 186 176
-0.385646 0.473192 4.07094 66 64 60
-0.335344 0.494318 4.06986 66 64 60
-0.74383 0.474219 4.0216 192 182 170
-0.445534 0.498421 4.0507 217 212 205
-0.383469 0.504815 4.06361 205 202 194
-0.601165 0.496277 4.0183 208 198 186
-0.173324 0.535391 4.10037 59 58 52
-0.11727 0.546301 4.10943 58 58 52
-0.0183427 0.562824 4.12915 62 60 56
0.220315 0.587217 4.20613 48 44 39
-0.7059 0.519415 4.00641 246 240 236
-0.45301 0.540512 4.02451 228 221 214
-0.232646 0.570951 4.0805 222 214 212
0.310021 0.613372 4.22237 196 190 180
0.623242 0.654684 4.35948 222 214 210
0.00368514 0.598061 4.11734 196 190 179
-0.061519 0.598094 4.09332 208 204 198
-0.542224 0.561471 4.00136 202 194 184
-0.429518 0.578446 4.02388 184 175 166
0.395623 0.668994 4.2382 216 210 208
0.289399 0.657092 4.1861 186 178 171
0.0617433 0.637425 4.12231 207 199 194
0.731809 0.727237 4.44578 179 170 163
0.655513 0.719149 4.39081 173 164 158
0.00586561 0.644102 4.10753 226 219 216
-0.144204 0.636866 4.06925 192 184 179
-0.371457 0.627998 4.02374 242 238 234
-0.235648 0.642819 4.03568 169 160 152
0.571394 0.742233 4.32409 226 222 222
0.0378445 0.678981 4.10098 176 165 161
0.152076 0.69694 4.12842 240 236 236
-0.47707 0.643886 4.01109 252 246 243
-0.694187 0.638068 4.01961 168 158 140
-0.0958172 0.685782 4.07945 240 234 234
-0.342301 0.664656 4.0148 166 154 145
0.594253 0.797859 4.34442 178 169 156
-0.515242 0.683403 4.0152 188 178 168
-0.0739898 0.721168 4.05636 166 156 150
0.0534463 0.750903 4.09522 236 230 228
0.240774 0.782625 4.1747 234 229 226
0.160008 0.777823 4.13139 171 162 155
-0.471266 0.728735 4.00149 43 42 42
0.531569 0.848732 4.32226 212 202 194
0.0150001 0.78329 4.07921 190 180 171
-0.237986 0.769731 4.02963 180 172 158
0.152869 0.837406 4.12164 220 210 204
2.34711 -1.43553 5.72961 112 108 104
2.44305 -1.31103 5.49947 111 106 106
1.56341 -0.137977 4.75108 80 77 76
1.92895 0.557981 5.15862 205 193 186
0.531506 0.575798 4.32867 50 50 46
0.477782 0.581762 4.30398 56 54 50
0.275713 0.587726 4.22041 40 38 32
-0.0604582 0.561018 4.12885 58 56 50
-0.161884 0.569627 4.08778 208 201 196
-0.615629 0.58425 4.00343 164 152 142
-0.494808 0.709479 4.01636 66 64 60
0.096135 0.849255 4.10142 215 203 190
1.18075 -0.840018 4.72445 90 90 91
1.66323 -0.779393 4.82468 98 95 91
0.62461 -0.844426 5.23602 58 58 56
1.00041 -0.724682 4.67934 74 74 72
0.852054 -0.722593 4.97382 198 193 191
1.01476 -0.595645 4.66406 50 50 48
0.375334 -0.655464 5.18811 76 76 76
0.675737 -0.615935 4.986 86 85 84
0.671172 -0.469875 4.7475 42 42 40
0.773122 -0.391451 4.66881 45 45 43
0.242161 -0.392454 5.0457 52 52 50
0.627641 -0.339926 4.67723 90 90 88
0.457733 -0.294496 4.65904 55 55 53
0.116232 -0.302064 5.00959 48 48 46
1.15478 -0.230666 4.5874 79 76 71
1.7846 -0.22115 4.87403 204 194 182
0.456746 -0.212546 4.64612 98 98 96
0.538542 -0.201177 4.61849 50 50 49
1.15321 -0.179574 4.59727 78 74 70
1.21807 -0.0267532 4.62161 217 204 187
2.32756 -0.0051389 5.24485 194 186 185
1.8976 0.0555203 5.06328 70 67 64
2.19199 0.144658 5.20638 218 210 210
1.91649 0.327408 5.12345 166 158 158
1.34972 0.411057 4.90833 170 162 160
0.569656 0.361865 4.30447 111 109 104
0.340051 0.380972 4.21857 118 116 111
-0.963282 0.333445 4.07238 234 226 218
-1.01192 0.38413 4.06696 224 216 207
-0.669915 0.419212 4.04196 217 212 199
-0.746819 0.41937 4.0237 234 228 220
1.52258 0.664157 5.09662 36 34 30
-0.62984 0.458645 4.02076 230 225 216
0.610484 0.560018 4.37775 54 52 50
-0.383066 0.503975 4.04614 208 205 198
-0.441681 0.511736 4.03966 225 219 214
-0.0275055 0.556825 4.11322 59 58 52
-0.818847 0.514127 4.01932 226 218 213
0.51683 0.620931 4.29647 199 194 191
-0.323604 0.5523 4.02672 216 210 204
-0.241736 0.568682 4.05978 220 214 212
0.142431 0.621249 4.15288 210 202 199
0.231153 0.631936 4.1828 204 196 193
-0.420346 0.581142 4.03173 185 176 168
-0.827149 0.57033 3.98008 43 42 40
-0.765867 0.57933 3.99844 192 181 166
-0.139695 0.638159 4.06371 194 186 180
-0.372481 0.62644 4.02631 239 234 230
0.575268 0.74125 4.32975 226 222 222
0.317798 0.714551 4.2021 225 220 218
0.140696 0.702432 4.13766 234 230 228
-0.580254 0.64446 4.01451 232 224 222
-0.336271 0.663845 4.01177 166 152 144
-0.29095 0.687752 4.05169 180 168 159
-0.214051 0.714325 4.04573 240 234 233
0.0503021 0.747793 4.1026 239 235 233
-0.443813 0.707711 4.00908 203 194 185
0.235363 0.783774 4.17363 220 216 215
-0.330042 0.729133 4.02728 228 222 216
0.331165 0.801428 4.20099 156 147 138
0.53055 0.846071 4.31427 212 202 196
-0.0525806 0.797378 4.07535 229 222 218
0.155746 0.834641 4.1196 217 210 203
0.336664 0.859847 4.20153 214 204 196
2.53767 -0.752094 5.47346 204 198 184
-0.262825 0.486532 4.05386 62 60 56
0.0378212 0.564846 4.14029 52 50 46
-0.486604 0.71596 4.02087 60 58 54
0.225834 -0.000864382 4.54362 96 94 90
-0.156685 0.793325 4.03975 189 179 170
1.29039 -0.791573 4.7133 62 61 58
1.68088 -0.766253 4.84067 98 94 89
1.20443 -0.739029 4.74125 102 98 94
1.03233 -0.618131 4.68065 50 50 48
0.929781 -0.593952 4.71044 84 84 82
0.405876 -0.651023 5.24583 72 72 70
0.861474 -0.52773 4.69589 86 85 83
0.780869 -0.407488 4.66514 52 52 50
0.198342 -0.462978 5.12267 54 56 54
0.678946 -0.38345 4.70475 92 92 90
0.440429 -0.296815 4.65226 56 56 54
0.120436 -0.29771 5.03063 50 50 48
0.441867 -0.199224 4.61139 94 94 92
0.342503 -0.123611 4.54915 102 102 98
0.124265 -0.0533509 4.4386 56 56 56
0.287458 -0.0417443 4.51323 57 57 57
1.23239 0.256849 4.66135 66 66 62
0.429004 0.41589 4.25582 100 98 94
-0.963734 0.341432 4.06577 237 230 221
-0.749138 0.426395 4.02849 228 222 214
1.33003 0.673907 4.97666 28 28 26
-0.33437 0.494128 4.07207 65 63 59
-0.136729 0.509929 4.10845 58 57 54
-0.546904 0.489747 4.01783 220 215 204
-0.234242 0.526023 4.10481 62 61 54
0.0304384 0.54797 4.11719 51 50 46
-0.440315 0.521338 4.04093 222 216 212
1.17532 0.712539 4.89183 25 23 24
-0.81406 0.512223 4.01237 227 220 216
-0.0850001 0.578891 4.11055 198 194 184
-0.503473 0.567493 4.01326 186 176 168
-0.485556 0.652987 4.01785 248 240 235
-0.223499 0.723703 4.03911 244 237 234
0.231904 0.789726 4.15618 236 230 230
-0.334232 0.734472 4.02935 230 222 216
-0.0515788 0.794211 4.07526 229 224 219
0.335629 0.861017 4.19571 214 204 196
1.14439 -0.194849 4.59493 79 76 70
1.23126 -0.111675 4.59895 200 186 170
1.18245 0.0659316 4.56001 205 192 176
-0.899509 0.308861 4.08303 76 72 61
-0.594978 0.423086 4.06174 64 61 54
-0.503729 0.45268 4.07975 73 71 65
-0.566348 0.45826 4.06195 221 214 202
-0.829601 0.589044 4.01093 33 34 34
1.05736 -0.855319 4.85783 52 53 50
0.702785 -0.728084 4.93844 65 65 63
0.666072 -0.346967 4.67187 88 88 86
0.424838 -0.319244 4.66792 57 57 55
0.423019 -0.153509 4.64045 100 100 98
1.26744 -0.0329173 4.64929 209 197 181
-0.159679 0.530346 4.11363 64 64 58
-0.0707491 0.632837 4.08369 220 214 213
0.150088 0.663067 4.14229 200 193 190
0.685079 0.987494 4.52875 27 27 27
0.230984 -0.452197 5.12597 71 70 68
0.265363 -0.608877 5.20993 190 188 176
0.642732 -0.731463 4.83137 66 66 64
0.685386 -0.111997 4.59705 94 92 90
0.383884 0.233191 4.3286 72 68 62
0.454824 0.40284 4.31552 110 110 105
1.42531 0.674647 5.02433 29 30 28
0.0293942 -0.413242 5.1649 187 184 172
0.783876 0.473091 4.53196 62 62 58
1.1241 -0.979433 5.00169 82 80 77
0.90625 -0.814312 4.95565 194 191 190
0.943832 -0.820616 4.9624 86 86 84
0.847759 -0.7867 4.98457 76 76 74
0.886316 -0.757919 4.93649 78 78 76
0.854594 -0.76611 4.99228 196 194 192
0.829925 -0.735829 4.99208 82 80 82
0.876317 -0.727262 4.9501 80 77 76
1.53525 -0.583557 4.70008 116 113 106
1.22693 -0.527308 4.63922 108 106 100
1.29456 -0.508966 4.63524 70 66 60
1.34051 -0.342192 4.64503 72 69 64
1.04721 -0.332823 4.58861 112 108 103
0.962944 -0.332639 4.60422 72 70 66
0.205938 -0.384738 5.04984 54 53 52
1.91824 -0.351202 5.00488 82 76 70
1.05928 -0.247771 4.57253 102 100 94
1.01145 -0.187415 4.54751 116 113 107
0.35147 -0.177868 4.63037 61 61 62
-0.175052 -0.198501 5.28528 133 127 115
-0.261201 -0.177887 5.22617 202 200 187
0.787021 -0.0718257 4.49703 68 66 60
-0.586174 -0.135337 5.28029 205 202 188
1.33845 -0.0511763 4.64769 210 200 186
0.454157 -0.0190697 4.45828 112 112 108
0.855929 0.00982536 4.48702 68 65 60
0.337228 0.00567231 4.44598 116 114 110
1.11166 0.0301145 4.55676 88 84 80
0.517838 0.0412849 4.40932 122 118 110
0.487498 0.0529343 4.38588 112 107 100
0.0196504 0.0371742 4.58542 82 80 76
-1.16042 0.0229287 4.24039 117 114 104
1.06225 0.157259 4.54252 82 82 78
0.617879 0.157192 4.39421 56 54 48
-1.04013 0.120945 4.18232 138 132 123
0.586138 0.200466 4.40329 60 58 52
-1.1294 0.140545 4.17978 97 92 85
0.442911 0.219023 4.34971 80 76 72
-0.665357 0.182099 4.07055 71 67 60
-1.16509 0.170577 4.1742 92 90 86
0.0391558 0.219904 4.28066 112 108 102
0.600355 0.246669 4.40143 62 60 54
-1.13709 0.177402 4.16876 68 66 60
-0.919371 0.184387 4.09525 81 76 70
-0.450432 0.204886 4.08244 130 124 114
0.465163 0.262076 4.35935 94 91 86
-1.07501 0.195623 4.14454 84 78 72
0.148474 0.252626 4.29212 66 62 55
0.00988349 0.257803 4.27969 114 110 104
-0.0471114 0.27496 4.24992 68 63 57
-0.330927 0.270174 4.07303 120 114 108
0.67831 0.337398 4.35415 100 97 93
-0.397377 0.281552 4.04704 112 108 102
-0.31626 0.288336 4.05395 70 66 59
-0.925078 0.265533 4.08855 71 67 62
-1.05995 0.269158 4.08736 224 217 206
-0.138787 0.317162 4.07464 120 116 108
-0.650542 0.306429 4.06162 98 94 90
0.592798 0.3982 4.29675 73 71 66
0.312475 0.387243 4.20631 157 155 150
-0.865158 0.331431 4.0826 118 115 106
-0.201707 0.368223 4.04676 96 92 88
-0.456607 0.374486 4.0388 96 92 89
0.33986 0.446391 4.18065 110 110 104
0.410837 0.451078 4.20107 94 92 86
-0.754738 0.390333 4.05136 215 208 196
0.272214 0.467082 4.15544 90 88 82
-0.06492 0.444888 4.06534 90 89 86
-0.644126 0.424637 4.03652 220 216 204
0.2405 0.477275 4.14328 104 102 96
0.267411 0.493283 4.16308 68 66 61
0.0825781 0.490209 4.09836 118 116 111
0.136035 0.503525 4.11987 125 123 118
0.188047 0.518551 4.1424 128 126 121
-0.957502 0.456415 4.08279 200 192 184
-0.195868 0.515645 4.09063 86 84 80
0.222606 0.552704 4.1653 84 82 77
0.514437 0.595192 4.31024 182 178 170
0.471388 0.601286 4.28447 172 168 158
0.497451 0.616322 4.28626 204 199 196
0.0515388 0.592564 4.14647 158 154 140
0.34097 0.617205 4.22017 215 208 198
-0.00106464 0.643596 4.098 227 220 218
-0.345588 0.615091 4.03024 240 234 228
0.00364501 0.676429 4.0905 214 208 204
-0.609789 0.667003 4.01301 75 70 66
0.468086 0.779767 4.25839 210 202 195
-0.457693 0.700076 4.02555 211 201 192
-0.535584 0.727852 4.04719 60 59 60
-0.290006 0.766828 4.07727 194 182 171
-0.254272 0.766054 4.02948 186 178 165
-0.296752 0.770457 4.02905 86 82 76
-0.0403943 0.82715 4.07122 196 185 174
1.94103 -0.580816 4.90636 112 108 102
0.350531 -0.631814 5.22183 68 66 63
1.11181 -0.489096 4.63083 78 76 70
0.681507 -0.422098 4.69509 92 92 92
1.23269 -0.234626 4.60464 212 196 178
1.2763 -0.208846 4.60205 78 74 69
0.901303 -0.157888 4.54108 70 67 60
0.927681 -0.141937 4.54215 106 104 96
2.87222 -0.13868 5.65044 64 60 56
0.751345 -0.0303595 4.46047 67 64 56
1.72395 0.00634414 4.88967 74 72 66
0.27992 -0.0188475 4.52318 62 62 60
0.299207 0.00333368 4.45913 108 106 102
1.14643 0.0411372 4.56978 74 72 68
0.870542 0.0573057 4.47863 65 62 57
1.16077 0.13067 4.57678 67 66 62
0.741376 0.125408 4.43562 88 84 80
0.0461579 0.159819 4.28799 60 56 50
0.105624 0.161578 4.29563 68 64 60
0.303952 0.176694 4.30856 91 88 82
0.186908 0.177495 4.29333 92 89 82
0.415216 0.206007 4.34152 61 58 54
0.280144 0.203972 4.28195 58 54 50
-0.556678 0.20113 4.08823 66 62 56
0.435574 0.250007 4.35539 67 64 59
0.266527 0.249069 4.31983 65 62 57
-0.0845688 0.243834 4.26346 80 76 70
0.294053 0.309626 4.27889 111 108 102
-0.293453 0.309059 4.04492 116 111 104
-0.239569 0.324129 4.05209 115 111 104
-0.795624 0.31236 4.06448 66 62 58
-0.157085 0.360262 4.05877 60 56 50
-0.0491235 0.368421 4.09172 101 99 93
-0.274735 0.357894 4.04177 88 84 80
-0.680543 0.347205 4.05283 96 92 87
0.294025 0.40589 4.19138 68 66 60
-1.08097 0.343744 4.09809 215 206 196
0.39336 0.427059 4.21182 72 70 65
-0.314406 0.391475 4.03682 80 77 72
-0.731856 0.374321 4.07152 86 82 74
0.134965 0.425922 4.12388 61 59 53
-0.373629 0.406906 4.03513 56 54 50
1.42729 0.590309 5.0064 127 116 106
0.127105 0.454242 4.11889 90 88 82
0.144113 0.47764 4.12493 59 57 52
0.210668 0.486578 4.14273 64 62 58
-0.074384 0.474182 4.06965 61 59 56
-0.448255 0.462604 4.06482 78 76 72
0.0377225 0.501603 4.10639 60 59 54
-0.284513 0.505232 4.08317 75 72 66
-0.233232 0.523885 4.09457 59 56 50
0.0557631 0.548918 4.12083 48 46 42
-0.115112 0.545927 4.11027 58 57 52
-0.836672 0.506888 4.017 224 216 211
0.844291 0.688988 4.55654 153 145 137
0.0627803 0.608046 4.12881 193 185 170
0.787551 0.719432 4.50234 228 222 222
-0.595833 0.575047 3.99821 158 146 136
0.117158 0.653377 4.12951 194 187 182
0.383139 0.722028 4.22425 162 154 148
0.126498 0.694759 4.12818 231 226 223
-0.43107 0.650601 4.02149 196 188 178
-0.580703 0.648676 4.01104 234 226 222
0.293935 0.757238 4.178 193 186 180
-0.68197 0.677844 4.04108 37 32 24
-0.396957 0.690626 4.0214 164 150 142
0.41531 0.783665 4.24518 234 228 226
0.395955 0.827535 4.21575 181 172 162
-0.308037 0.795308 4.09165 48 48 46
0.338974 0.865526 4.19796 221 212 202
-0.204953 0.809695 4.04885 48 48 46
0.1969 0.860795 4.14263 169 158 142
0.288824 0.891344 4.16441 48 44 40
2.43802 -1.36708 5.5556 119 114 112
0.390868 -0.691036 5.22604 88 87 82
0.243797 -0.52052 5.1471 92 91 88
1.1598 -0.0543884 4.57624 73 68 62
-0.721333 0.401499 4.06716 201 196 180
-0.435905 0.711714 4.00505 194 188 180
1.34011 -0.804741 4.72998 60 60 56
0.920182 -0.835546 4.96965 175 172 170
0.532218 -0.897885 5.36072 76 76 72
0.360862 -0.646744 5.23875 68 68 64
0.668984 -0.460346 4.73883 47 47 46
0.703965 -0.3964 4.65785 92 92 90
0.410882 -0.201489 4.64905 100 100 99
1.31513 -0.11811 4.62264 74 72 69
-1.30851 -0.0449074 4.46832 142 136 126
1.18307 0.0612223 4.57436 208 196 180
1.20234 0.097496 4.56399 205 194 178
1.57789 0.261451 4.98894 192 186 188
2.35039 0.309841 5.26649 175 166 162
-0.240567 0.352354 4.04378 71 69 64
0.494955 0.405056 4.25296 121 120 115
-0.922756 0.330657 4.07485 232 225 214
0.522534 0.428305 4.25883 70 68 63
-0.726589 0.370844 4.06614 78 74 68
-0.501755 0.452507 4.06776 72 69 62
-0.635769 0.459067 4.02249 232 225 215
0.0333069 0.570278 4.14508 63 60 56
-0.771336 0.530974 4.0196 205 195 185
0.0626402 0.610059 4.1287 203 195 180
0.152709 0.618828 4.1533 214 208 202
0.220823 0.629605 4.17342 219 212 206
0.550206 0.690937 4.3146 167 160 154
0.477163 0.698294 4.28143 222 218 214
0.119498 0.655743 4.13149 196 188 184
-0.541197 0.605828 4.01115 186 176 166
0.126447 0.694678 4.12587 231 226 223
0.507803 0.776948 4.29113 154 146 137
0.413495 0.782075 4.24409 232 228 224
-0.209706 0.717632 4.04538 244 238 237
-0.562064 0.704137 4.03721 39 38 38
0.339447 0.797106 4.1985 164 155 147
-0.325945 0.729583 4.02247 232 226 220
-0.503117 0.732835 4.06943 47 46 45
-0.114585 0.760309 4.06801 159 149 142
-0.0512694 0.799605 4.07316 232 226 220
-0.315126 0.783612 4.02971 44 44 44
0.337833 0.863783 4.2008 219 209 200
-2.49561 0.0325952 6.49018 216 208 194
-2.93445 0.0422723 7.19327 215 208 195
-2.31568 0.0599172 5.96278 52 50 43
-1.01375 0.284921 4.09891 208 200 188
1.74485 0.585712 5.09958 208 198 189
1.60081 0.615796 5.11836 202 194 184
0.410405 0.588186 4.27921 41 38 32
-0.0931912 0.575877 4.11097 192 186 177
-0.580809 0.645752 4.00571 234 227 224
-0.022637 0.733794 4.09177 186 176 170
-0.0234288 0.830876 4.06768 190 178 166
0.356435 0.900033 4.18444 20 20 19
0.980361 -0.871237 4.94674 157 154 149
1.21286 -0.755816 4.74324 106 103 98
1.68685 -0.0814181 4.85886 193 184 172
2.21109 -0.0820995 5.20693 89 84 82
2.56732 -0.0255412 5.42427 217 212 212
2.16992 -0.0280453 5.24759 96 92 86
0.16753 -0.0495534 4.57071 66 66 66
0.303089 -0.0454527 4.52944 60 60 59
1.1198 0.0530018 4.56646 74 71 67
1.93735 0.412254 5.15581 218 214 212
1.11301 0.400822 4.71431 59 58 54
1.59451 0.453546 5.04398 218 212 210
1.18397 0.463555 4.78328 178 169 169
-1.16488 0.31557 4.13434 82 79 76
1.36403 0.534947 4.90756 128 118 109
-0.845815 0.377416 4.04657 250 246 241
-0.922468 0.451316 4.04586 236 228 224
-0.553386 0.485294 4.05564 214 210 200
0.52846 0.583621 4.38555 50 50 48
-0.118051 0.526754 4.11141 64 62 58
-0.170369 0.590588 4.08788 216 210 204
-0.0736431 0.602937 4.09416 216 211 209
-0.23866 0.646 4.03214 176 166 160
0.0449655 0.683586 4.09499 189 180 176
-0.0662191 0.716665 4.02844 164 154 148
0.34478 0.586197 4.24753 58 56 53
0.923698 -0.764423 4.95519 80 81 80
1.18634 -0.0989915 4.56453 205 194 176
1.08553 0.451902 4.71864 164 154 152
0.923304 -0.699944 4.88823 50 50 48
1.11135 0.0839662 4.55945 89 86 82
1.21114 0.109501 4.61317 204 194 178
-2.96765 0.0383568 7.22692 217 210 196
-1.12279 0.0922495 4.19187 94 90 80
-1.10575 0.130172 4.0999 89 86 78
-0.699839 0.356368 4.0107 80 76 72
-0.461647 0.431463 4.02758 68 66 62
-0.428535 0.502842 4.08033 208 202 197
-0.15292 0.539484 4.10748 68 65 60
0.334007 0.599571 4.3208 52 50 48
-0.246931 0.572757 4.06157 219 212 210
0.166164 0.648659 4.15417 210 204 202
-0.241663 0.647998 4.03095 180 170 164
0.222408 0.713086 4.14773 176 168 162
0.0422502 0.78117 4.09809 202 193 184
-0.407667 0.774314 4.0047 28 28 28
0.15482 0.835491 4.11223 218 210 202
0.400971 0.942689 4.24861 18 18 18
-0.94151 0.263966 4.11557 104 100 95
-0.98019 0.276843 4.09098 110 104 94
-0.768299 0.370725 4.09546 87 83 76
-0.546281 0.401658 4.06954 88 86 81
-0.66249 0.423687 4.04769 223 218 208
-0.279099 0.534764 4.08265 210 205 199
0.956087 -0.71391 4.90227 50 50 48
0.410479 0.0180986 4.51197 100 98 92
0.345598 0.186785 4.3271 74 72 66
-0.896505 0.298563 4.08004 76 72 65
0.375114 0.387927 4.24129 110 110 105
-0.88425 0.404601 4.01898 228 222 216
-0.253862 0.54644 4.07839 219 212 208
0.314924 0.689464 4.20787 202 195 190
-0.215934 0.725047 4.05793 242 236 234
0.0351009 0.557095 4.12826 57 56 52
1.00859 -1.25955 5.36293 82 82 78
-0.0457577 0.0621293 4.5958 114 112 107
-0.928408 0.226641 4.13812 98 94 88
-0.709543 0.252983 4.13109 104 99 94
-0.279749 -0.255601 5.10672 196 193 179
0.788312 -0.0960909 4.50974 123 120 115
1.46244 -0.0682258 4.72037 77 74 70
2.89601 0.0179518 5.66279 220 214 214
0.46891 0.206099 4.35958 54 51 45
0.274574 0.219589 4.30792 97 94 88
0.585249 0.281262 4.38552 66 63 58
0.558537 0.314733 4.35141 71 68 63
0.440303 0.320418 4.33157 68 66 60
0.172319 0.41559 4.12987 102 100 96
-0.383507 0.434067 4.04301 92 90 87
-0.414741 0.568564 4.02696 192 181 172
-0.593539 0.630034 4.01362 232 226 223
0.118778 0.739235 4.11295 191 184 179
-0.425733 0.734439 4.01411 64 62 59
0.290904 0.86289 4.17205 214 205 194
0.0175476 0.832172 4.07703 182 170 158
-0.0949907 0.835378 4.07307 82 78 74
1.83228 -0.0891292 4.93818 80 76 72
1.6743 0.0180147 4.87938 197 188 177
0.972967 0.146132 4.5269 53 52 47
0.398202 0.127805 4.33606 108 104 97
0.166641 0.128632 4.30674 117 113 104
0.0695355 0.20651 4.29133 60 56 51
0.207038 0.251495 4.2939 68 64 58
-1.12083 0.244963 4.14192 246 239 225
-0.736766 0.313472 4.05444 62 58 52
0.457485 0.427543 4.24034 63 62 58
-0.674702 0.461605 4.01243 200 190 176
1.84728 -0.309719 4.92204 85 82 76
-0.380241 0.759841 4.0305 50 48 48
-0.00387671 0.674522 4.0998 214 210 206
-0.465467 0.704609 4.02508 215 205 196
1.20383 -0.179449 4.59488 204 190 174
-0.924205 -0.182343 5.03265 208 201 186
-1.13095 0.172937 4.18292 94 88 82
-0.0497944 0.720506 4.04736 172 162 156
0.323214 0.646569 4.44284 160 154 144
1.28727 0.131564 4.69564 202 193 178
-0.175229 0.810639 4.02803 58 54 54
-0.103607 0.642475 4.06722 207 200 197
1.3117 -0.403427 4.62634 94 92 88
1.78913 -0.227922 4.88944 203 194 182
1.78039 -0.0435598 4.91118 72 68 64
1.73564 -0.0413386 4.89977 196 188 176
1.23258 -0.238989 4.60451 208 192 172
-0.548957 0.377668 4.03965 64 60 57
-0.444653 0.458585 4.04413 79 76 72
1.18092 -0.1875 4.58969 79 75 72
0.355431 0.580956 4.23133 62 60 56
-0.707301 0.517544 4.0024 246 239 234
2.34754 -1.42529 5.6504 119 114 109
-0.821218 0.370686 4.06321 234 227 219
-0.210222 0.547681 4.09182 194 187 178
-0.291452 0.686594 4.05578 188 176 168
-2.90357 0.0335325 5.80788 218 210 194
2.37195 -1.42941 5.68116 112 108 105
-0.145488 0.797543 4.0492 206 195 186
-0.539439 0.606743 4.01933 192 180 170
-0.741716 0.371666 4.07032 86 82 73
1.18555 -0.387214 4.60264 104 100 94
1.16089 -0.341806 4.5913 94 92 86
1.0821 -0.353202 4.60009 72 68 62
0.205795 0.716345 4.14841 172 163 157
1.88828 0.685893 5.43807 34 34 34
0.371314 0.638222 4.22224 195 188 184
1.33892 -0.533175 4.63645 110 106 99
0.987668 -0.321974 4.60034 102 99 93
0.469034 0.0911912 4.3641 108 103 96
0.975877 0.115869 4.51386 74 72 68
0.52461 0.346648 4.31507 94 92 88
-0.0601308 0.34619 4.09452 66 63 56
-0.11625 0.57503 4.08275 206 201 193
-0.183038 0.631488 4.0532 213 204 200
0.610523 0.808035 4.35026 158 148 136
-0.32516 0.759599 4.01894 83 76 72
1.9446 0.0336352 5.08315 66 64 62
0.241596 0.206429 4.29546 61 58 52
1.76311 0.332112 5.08254 156 144 144
-0.115873 0.3325 4.08944 64 60 54
0.686405 0.454527 4.44417 70 70 64
0.515728 0.457571 4.31535 76 74 70
1.33256 0.662622 4.95615 36 34 32
0.566906 0.623424 4.34328 202 196 193
0.591113 0.738409 4.34635 234 229 228
0.502285 0.776062 4.27036 142 132 124
1.70247 0.204609 5.01435 196 189 191
1.76809 0.431588 5.1002 224 218 219
-0.437028 0.398294 4.0393 52 50 47
1.38612 0.613178 5.01773 206 196 190
-0.626207 0.6658 4.0088 83 78 74
1.71731 0.00558051 4.87353 73 70 64
-0.797345 0.604763 4.01432 50 48 48
-0.66151 0.657693 4.01743 160 148 132
2.4478 0.0435807 5.55308 192 185 184
1.80992 0.212653 5.03228 183 178 176
1.38688 0.612682 5.02154 202 193 186
1.33337 0.675823 4.98713 32 30 28
0.396898 0.715756 4.22799 164 156 149
0.423647 0.908749 4.27381 18 14 9
-0.838706 0.439278 4.02988 194 183 174
0.94996 0.654219 4.62783 202 194 191
-0.0710066 0.615231 4.08722 212 206 204
-0.0830994 0.676135 4.09604 228 220 220
-0.234957 0.765478 4.03188 186 176 164
0.107599 -0.270895 4.93789 52 52 50
2.16229 -1.41287 5.80753 214 210 195
1.26197 -1.10486 5.00043 134 130 124
0.558519 -0.88681 5.27137 70 70 66
0.559753 -0.828919 5.23549 104 102 98
0.535873 -0.795846 5.22791 119 115 110
0.511883 -0.790326 5.25517 97 94 88
1.35389 -0.782912 4.72019 94 92 90
1.69913 -0.78907 4.81219 115 114 110
1.28713 -0.752641 4.70949 48 47 44
1.67115 -0.710798 4.77042 115 112 109
2.33733 -0.691667 5.22649 222 214 205
1.52381 -0.643263 4.71593 106 102 98
1.78616 -0.613344 4.79887 80 77 74
1.65152 -0.571811 4.72999 120 116 108
1.46149 -0.454846 4.65778 91 88 82
0.174769 -0.395576 5.06246 104 104 100
1.36833 -0.409038 4.63435 92 89 83
0.155753 -0.317946 5.02553 108 108 106
1.11686 -0.346684 4.59313 100 96 90
1.87573 -0.135086 4.95542 76 70 66
1.83407 -0.134339 4.93931 199 191 179
0.507505 -0.148124 4.57992 106 106 104
0.8485 -0.151213 4.53969 63 61 56
1.13209 -0.108853 4.57089 121 120 114
0.896512 -0.0949677 4.52246 104 100 94
0.940958 -0.0895069 4.52454 103 100 93
1.41416 -0.058745 4.69258 78 78 73
0.758074 -0.0847935 4.49685 96 96 92
0.843036 -0.0451228 4.48071 103 100 93
0.405171 0.0702931 4.37543 62 57 48
-1.13635 0.035653 4.23523 146 142 130
-1.09236 0.0391977 4.22771 88 82 72
1.1771 0.171896 4.58913 64 60 56
0.0375757 0.138604 4.30186 113 108 102
-1.00364 0.103411 4.1686 86 80 70
-1.06025 0.114636 4.18214 81 74 65
0.694047 0.200173 4.4269 60 58 52
0.195916 0.173142 4.29499 90 86 80
-0.868516 0.133576 4.12517 70 64 58
-0.000334442 0.182308 4.28927 119 114 108
-1.02176 0.163662 4.13381 119 112 105
0.275262 0.220448 4.31345 92 89 83
0.98203 0.271633 4.48474 60 58 52
-0.189309 0.215798 4.28672 107 102 92
0.0241393 0.225205 4.28156 124 118 112
0.201778 0.2272 4.29814 111 107 102
-0.0312868 0.225594 4.28231 116 111 105
-0.30271 0.223725 4.25549 69 62 53
-0.773806 0.196271 4.08021 110 104 96
-0.56839 0.203613 4.08454 69 64 58
0.104967 0.268245 4.28021 124 120 114
0.833902 0.31803 4.42185 63 60 54
0.129229 0.282826 4.28025 70 66 61
0.183526 0.286095 4.28101 64 60 53
-0.927255 0.241595 4.08996 110 106 100
-0.751883 0.235374 4.05046 107 102 96
0.188188 0.30589 4.26903 116 111 105
1.80336 0.587751 5.15979 199 188 177
0.408822 0.346772 4.29146 77 74 68
-1.09143 0.277616 4.10651 247 239 229
-0.833213 0.274585 4.06767 76 71 66
0.372547 0.355805 4.26886 133 132 125
0.524822 0.367536 4.29701 121 120 116
0.350196 0.362477 4.25205 118 115 109
-1.0341 0.316362 4.08336 210 200 188
-0.142219 0.335738 4.07525 71 67 61
-0.812344 0.332405 4.06967 80 74 68
0.151093 0.37257 4.15282 110 105 99
-0.854793 0.354403 4.05234 236 232 224
-0.581586 0.365244 4.04649 90 86 81
0.310029 0.428781 4.17706 104 101 96
-0.972802 0.373274 4.05561 208 198 188
-1.00184 0.386769 4.05727 230 222 212
-0.608957 0.400704 4.06074 96 92 87
-1.00486 0.407424 4.04202 206 196 188
-0.445811 0.427258 4.04745 82 78 74
-0.353977 0.517825 4.06417 200 196 186
-0.259617 0.535878 4.0655 210 204 196
-0.538558 0.690983 4.0076 74 72 68
0.211279 0.796213 4.13926 238 229 228
2.1879 -1.39924 5.76842 105 102 98
2.42087 -1.07176 5.35271 90 86 83
1.20653 -0.853612 4.70675 86 86 86
1.07144 -0.782529 4.725 78 78 76
1.1276 -0.758297 4.74236 59 60 56
1.52256 -0.729291 4.74351 53 52 48
2.17158 -0.725068 5.11554 69 68 66
0.505501 -0.706083 5.1897 56 56 54
1.62361 -0.591241 4.72745 78 76 72
2.21332 -0.559466 5.13635 210 202 189
0.412711 -0.537052 5.00935 49 49 48
1.2619 -0.492444 4.63312 90 88 82
2.17993 -0.46973 5.12992 208 198 187
1.08163 -0.439873 4.62461 73 70 65
1.23179 -0.413739 4.61404 65 62 56
1.17276 -0.409899 4.61192 64 62 56
1.92391 -0.369214 4.95995 78 74 68
1.23662 -0.337828 4.61891 70 69 64
2.02622 -0.282884 5.07213 191 184 172
1.01947 -0.285921 4.58272 104 100 94
1.78787 -0.227222 4.88503 204 195 182
1.89041 -0.180992 4.96447 198 190 180
2.61523 -0.0824264 5.4402 240 236 236
1.24921 -0.181052 4.62649 208 194 176
0.314803 -0.161116 4.62478 48 48 48
0.935911 -0.116151 4.53576 72 68 62
1.73436 -0.0400232 4.90146 196 187 176
1.09039 -0.0791724 4.55958 64 61 56
0.497301 -0.0371143 4.48234 42 42 40
0.0977286 -0.0157337 4.614 62 62 62
0.694866 -0.0245118 4.45718 60 56 52
1.54387 0.125941 4.83857 184 176 165
0.517211 0.0665321 4.38478 66 62 54
0.541731 0.0825268 4.37409 101 96 88
0.372692 0.110236 4.34246 66 60 54
2.09214 0.307923 5.1793 172 164 161
0.397568 0.128548 4.33366 103 98 92
0.33358 0.130258 4.31668 96 92 86
0.278121 0.16074 4.31579 65 60 54
-0.777358 0.128005 4.1183 118 110 102
0.925095 0.248254 4.4934 92 88 82
-0.0448805 0.206867 4.29359 62 57 51
-0.792754 0.176287 4.08882 73 68 62
-0.734863 0.181934 4.08377 74 68 60
-0.791613 0.202832 4.07819 116 110 104
-0.895376 0.222843 4.08706 67 63 58
-1.12099 0.246209 4.1408 250 242 230
-0.781717 0.250326 4.07092 100 95 89
-0.517312 0.25853 4.06152 98 92 86
-0.426692 0.287546 4.05283 94 88 82
-0.588475 0.310081 4.0521 100 96 90
0.0573245 0.368586 4.11946 65 60 54
0.263385 0.393434 4.18386 95 92 85
-0.339297 0.345561 4.03049 90 86 80
1.13256 0.58438 4.78531 202 192 190
0.231391 0.399581 4.16548 68 66 58
-0.2164 0.370132 4.04049 87 84 79
-0.610424 0.372534 4.04782 59 56 50
-0.548302 0.378572 4.04458 61 57 52
0.171414 0.416905 4.13193 100 96 91
-0.202009 0.394973 4.04819 52 48 44
-1.01056 0.384687 4.05442 228 220 210
-0.416372 0.44131 4.03456 61 58 52
0.818927 0.616935 4.51134 210 202 198
-0.53843 0.463182 4.04178 212 206 194
-0.389164 0.475081 4.06769 70 67 60
-0.674152 0.462631 4.0181 196 184 170
0.385932 0.607445 4.25028 184 178 167
0.916025 0.769835 4.60374 30 28 24
-0.117298 0.582228 4.10186 219 213 206
-0.0591908 0.597429 4.09592 211 205 199
-0.43126 0.573384 4.01671 181 172 162
0.285442 0.657345 4.19257 188 180 173
-0.783674 0.57349 4.01658 190 180 168
-0.480311 0.647611 4.02353 252 244 240
-0.343877 0.664335 4.01671 170 157 150
-0.625842 0.660266 4.00394 88 80 76
2.15901 -1.41534 5.79953 214 210 196
-0.0625346 0.56051 4.12427 50 46 40
-0.656716 0.657934 4.0155 160 148 133
-0.462909 0.698661 4.00502 208 197 188
1.88941 -1.45112 5.72583 78 76 71
1.82378 -1.42763 5.74822 214 208 196
1.11778 -1.04444 4.98033 76 76 72
0.503258 -0.833955 5.26484 200 196 184
0.509064 -0.708233 5.16364 56 56 54
0.520265 -0.562305 4.94536 66 66 64
1.90849 -0.57021 4.83404 106 102 94
1.84704 -0.187535 4.88334 196 188 176
0.319474 -0.168275 4.64477 54 54 54
2.18472 -0.0659416 5.18662 86 83 79
1.85557 -0.0940188 4.93615 74 72 67
0.322599 -0.114483 4.60255 101 101 99
0.0911171 -0.0163501 4.61237 66 66 66
2.7488 0.197177 5.5311 168 158 156
1.65197 0.132676 4.95756 60 60 55
0.410021 0.324497 4.2921 73 70 65
-0.507157 0.278959 4.09148 97 92 86
-0.816345 0.333783 4.06982 86 80 73
0.857243 0.496786 4.53681 56 53 48
-0.921436 0.392742 4.04119 203 194 186
-0.633908 0.401273 4.05715 72 68 62
-0.417234 0.443719 4.03493 62 59 53
0.141573 0.580527 4.18183 48 44 40
-0.265545 0.541509 4.07505 214 208 201
0.117814 0.604204 4.16408 182 173 156
0.466652 0.653041 4.27944 176 168 164
0.328376 0.711386 4.20672 226 221 218
-0.28927 0.687415 4.0436 183 172 164
2.44692 -1.42534 5.70275 108 104 103
1.83941 -1.30627 5.64574 86 84 82
2.42198 -1.18281 5.38369 96 96 93
1.19802 -0.171634 4.58042 208 196 182
-0.234107 0.522439 4.08706 60 56 50
-0.444513 0.705218 4.00553 204 194 186
-0.152423 0.791732 4.04194 200 190 181
1.18357 -0.982248 4.95537 55 56 52
0.491455 -0.830638 5.26257 198 196 182
2.3417 -0.406936 5.36193 87 84 80
1.23537 -0.262139 4.60418 210 198 179
1.84415 -0.194654 4.92265 200 190 177
1.88528 -0.0886508 4.99285 72 70 66
0.507852 -0.0446761 4.48999 48 47 45
1.7291 0.221144 5.03378 190 184 184
-0.734599 0.469573 4.01443 196 185 172
-0.237918 0.526192 4.10886 64 60 55
0.987917 0.754413 4.70233 21 18 16
-0.706082 0.516548 3.9988 239 232 229
-0.500709 0.572832 4.00907 186 176 168
-0.101163 0.682992 4.06116 237 230 230
0.860793 0.495838 4.54414 54 52 46
-0.615626 0.676562 3.99298 46 45 44
0.439614 -0.753689 5.24317 197 195 181
2.53216 0.396238 5.40278 204 195 190
1.07276 -0.879852 4.92449 56 56 54
0.5326 -0.723111 5.20481 54 55 54
0.0842514 -0.0167056 4.69916 70 70 70
0.0978391 0.162911 4.31484 62 56 52
2.02182 0.585951 5.2055 51 46 42
0.147124 0.353219 4.24061 94 90 82
-0.644712 0.462314 4.02623 220 212 204
-0.209521 0.550044 4.08927 200 195 186
2.29485 -1.42029 5.70244 107 104 102
-0.138054 0.495807 4.13768 59 56 52
-0.335215 0.48614 4.07744 69 64 60
0.443665 -0.810597 5.24148 198 195 181
-0.349223 0.567713 4.00232 210 202 198
0.0707699 -0.138759 5.01462 78 77 76
1.50815 -0.661071 4.71814 81 78 73
2.00273 -0.243328 5.00897 78 74 70
0.909521 -0.160645 4.54762 64 60 54
2.14694 0.0144504 5.18633 224 218 216
2.80805 0.143296 5.5492 164 158 156
0.124394 0.0282689 4.57045 87 86 82
0.518241 0.0413207 4.40275 110 106 98
0.141969 0.229068 4.29312 132 128 122
0.62328 0.261993 4.40111 94 92 86
2.2872 0.510043 5.26585 64 59 54
2.1439 0.53221 5.24244 172 162 151
0.16374 0.293443 4.27056 80 74 68
0.500164 0.317404 4.33872 65 62 57
0.486152 0.324738 4.33246 58 54 50
1.91972 0.596391 5.18714 66 61 53
-0.556128 0.408042 4.05407 100 96 90
-0.504913 0.420831 4.05265 84 80 74
0.419647 0.777274 4.26298 236 230 226
-0.475262 0.719163 4.01105 57 54 51
1.85904 -0.708397 4.86339 110 108 102
1.26132 -0.546507 4.64776 74 70 66
1.99964 -0.42864 4.9987 70 68 60
0.68308 -0.423261 4.70495 94 94 92
1.1171 -0.316754 4.58492 68 64 60
1.16694 -0.182366 4.58702 66 66 62
1.51583 -0.0895866 4.75155 81 78 74
2.77402 0.0802673 5.51337 241 235 235
1.75534 0.333122 5.06553 154 146 144
-0.00878231 0.159847 4.29888 66 61 55
0.131849 0.17746 4.28999 104 100 94
0.1128 0.24207 4.28643 62 56 50
2.05328 0.516428 5.19983 224 216 212
-0.486355 0.27863 4.05221 98 93 86
-0.650835 0.279854 4.04548 71 67 62
-0.797448 0.315204 4.0607 66 62 56
-0.0555568 0.392868 4.06683 60 57 51
-0.499629 0.390478 4.04504 61 57 52
-0.850531 0.523732 4.0292 186 174 159
-0.539049 0.604118 4.00573 188 175 166
-0.514777 0.682227 4.00765 188 179 171
-0.0876527 0.57617 4.12284 178 174 164
0.137245 0.7861 4.11841 176 166 160
1.88947 -1.36419 5.71738 80 80 76
1.73522 -0.675209 4.80849 80 79 74
1.96342 -0.195122 4.9766 79 78 74
1.78615 0.0744116 5.05708 68 68 64
-0.274804 0.496396 4.0689 68 64 57
-0.497755 0.571658 4.00614 188 176 168
-0.390484 0.688483 4.03336 162 150 140
-0.335796 0.494999 4.07293 66 62 56
0.182455 0.584024 4.18892 48 46 40
-0.604815 0.578423 4.00072 166 149 138
-0.240825 0.64828 4.03354 174 164 158
-0.0292841 0.741116 4.11718 178 166 160
0.554559 0.367542 4.31703 110 108 102
-0.336878 0.560805 4.03921 216 208 202
-0.00920576 0.617327 4.08879 210 203 198
1.74603 0.0147529 4.81796 70 68 66
1.58636 0.0114693 4.80533 191 183 172
0.119312 0.604041 4.17189 164 158 139
1.58347 0.019202 4.84442 188 181 168
1.96693 -0.257732 4.99789 194 185 174
1.14591 -0.269989 4.58149 64 62 56
2.25977 -0.0597284 5.23351 176 170 163
1.15663 0.0378747 4.57194 66 64 58
-0.864673 0.289501 4.07664 114 109 104
-0.432955 0.648237 4.00796 194 185 177
1.23548 -0.234272 4.60597 210 198 178
0.0464035 0.16154 4.30153 58 54 46
-0.575201 0.361069 4.04974 98 94 89
0.0213809 0.831376 4.08007 182 172 159
2.88242 0.105561 5.66213 222 216 214
-0.671505 0.433516 4.02719 232 228 215
1.37399 -0.0692377 4.65532 76 72 69
0.282696 0.894523 4.16358 37 33 31
-0.0237897 0.736145 4.09263 184 172 164
-0.0353255 0.73657 4.10692 179 168 160
0.39348 0.825518 4.21231 178 166 158
0.295754 0.860572 4.1768 210 200 190
-0.494943 0.210989 4.08321 74 68 59
0.339688 0.86302 4.19555 218 206 198
0.22301 0.632975 4.17623 226 216 214
-0.542468 0.462817 4.04307 218 210 198
-0.501686 0.666543 3.99831 204 191 184
-0.508153 0.45097 4.06662 80 74 67
1.3127 -0.378693 4.63949 57 54 49
0.0635827 0.613002 4.12699 219 209 198
-2.86422 0.0306386 6.02191 52 49 40
2.03404 0.201707 5.15997 225 217 214
0.330104 0.70798 4.20323 230 223 222
1.14229 -0.0752069 4.57405 61 59 54
0.457595 0.426652 4.23572 64 60 54
-0.475874 0.434247 4.03284 64 60 53
0.177646 0.57615 4.17113 50 45 38
0.338189 0.861339 4.19753 210 200 192
1.66481 0.0156888 4.85975 186 177 166
2.43101 -1.37751 5.58386 107 104 104
-0.749946 0.588888 4.01347 193 180 164
2.07097 -0.308824 5.04843 79 72 66
0.387066 0.317761 4.31229 66 61 56
0.619909 0.41385 4.29336 94 91 85
0.0808712 0.488606 4.09726 102 98 91
0.434026 0.596639 4.26507 153 150 139
0.964941 -0.163296 4.55183 71 66 60
1.60864 0.0584117 4.84168 187 177 164
0.581897 0.365635 4.3066 110 108 102
0.495549 0.403569 4.25632 116 113 108
0.362893 0.408703 4.21036 102 98 94
0.155232 0.833568 4.11429 218 207 200
0.0286401 0.547955 4.11579 53 50 44
1.14133 -1.00109 5.00726 194 191 187
1.6043 -0.809769 4.75771 88 88 83
1.23747 -0.78897 4.71532 88 87 84
1.58927 -0.782259 4.77359 52 52 49
1.64814 -0.541378 4.71836 70 66 58
1.20052 -0.539572 4.64067 68 64 60
1.1019 -0.508978 4.64651 108 106 102
1.34299 -0.419624 4.63808 58 54 48
-0.607663 -0.114863 5.32577 120 116 104
-1.01355 -0.153135 4.99742 60 58 53
-1.05435 -0.139178 4.82238 128 122 112
1.35487 -0.156956 4.63938 89 87 82
0.347288 -0.145213 4.63438 106 105 103
1.1688 -0.140911 4.58073 56 55 50
-0.158706 0.0693254 4.68546 116 110 102
0.140695 0.0500573 4.55219 76 76 71
