ply
format ascii 1.0
element vertex 1332
property float x
property float y
property float z
property uchar red
property uchar green
property uchar blue
end_header
-2.86773 -0.472366 6.49837 174 128 106
-3.3789 0.0993995 5.61083 156 142 121
-1.90267 0.266483 7.65578 137 86 66
2.37647 0.30823 6.81883 84 47 26
-3.69438 0.359305 5.09001 63 0 0
-2.05921 0.551267 7.47085 94 44 30
-3.61868 0.603174 5.24373 21 18 34
-3.64834 0.732968 5.2955 18 17 34
1.79635 1.02284 6.84784 165 139 130
-0.272466 0.895465 5.6393 132 16 14
-3.53604 1.45247 6.01728 129 14 12
1.5793 -1.88399 6.09393 138 114 98
-1.42799 -1.79132 6.93871 59 26 15
-1.53572 -1.5517 6.91524 178 114 91
-1.29049 -1.19978 7.07535 160 108 85
-2.79888 0.067086 6.97265 178 130 102
1.70825 -1.67282 5.98261 150 124 112
-1.51282 -1.90849 6.98949 57 32 17
-3.31267 -1.3747 6.40312 153 106 82
-1.43061 -1.48765 6.90527 182 114 88
-1.10341 -1.36656 6.98337 33 12 6
-2.73005 -0.78147 6.80854 156 114 94
-1.3397 -0.776203 6.90211 182 140 118
-0.805808 -0.764399 7.14181 26 10 6
-1.35943 -0.557923 6.69153 178 136 120
-0.984882 -0.604283 7.16395 26 7 6
-1.09616 -0.467522 7.16761 58 18 14
-3.2492 -0.398573 6.7461 42 11 6
-1.79234 -0.203828 6.96703 133 79 62
-3.51092 0.0857684 5.28089 161 144 124
-3.36973 0.278515 5.3704 156 112 56
2.18534 0.412578 6.71573 146 121 109
1.58475 0.455694 7.25335 160 132 118
1.79591 0.473875 6.97213 161 133 122
-0.726033 0.470559 7.49751 176 133 115
-1.67594 1.04501 7.45952 168 132 117
2.18366 1.23544 6.65675 114 72 54
-3.74861 1.34063 5.88008 108 10 10
-3.65785 1.44528 5.93457 148 83 33
-3.52972 1.46741 5.9897 133 14 14
1.70864 -1.5255 5.79144 154 126 116
-1.38007 -1.71768 6.86113 169 112 90
-3.51061 -1.4783 6.51173 66 40 19
-2.84627 -1.26122 6.5099 160 102 82
-3.32397 0.0707117 5.65328 156 140 116
1.92491 0.187844 7.05113 134 110 94
-2.17456 0.41022 7.34901 144 98 85
-0.317128 1.6556 6.24229 84 48 44
-0.61917 0.526999 7.59066 165 123 104
-2.83131 0.663141 6.98411 130 80 62
-0.0924226 1.25451 5.91326 156 24 24
1.57101 -2.26501 6.54358 110 72 36
1.74868 -1.37197 6.00257 93 51 22
-3.57158 -1.00361 6.79733 70 42 19
2.33337 -0.974217 6.70359 108 94 70
-1.37147 -0.760595 6.80549 201 156 132
-3.71421 -0.410165 4.87341 34 31 63
-1.08932 -0.597321 7.05401 58 17 8
1.82329 -0.534068 6.93073 44 7 0
2.51013 -0.433889 6.26748 50 42 48
-3.22484 -0.383958 6.81914 86 38 27
-2.66931 -0.312362 6.35179 86 43 23
1.82056 0.0415482 7.30285 166 126 106
1.57434 0.21386 7.45416 156 128 112
1.59187 0.464754 7.85113 92 79 56
-4.05554 0.390976 5.02452 108 12 9
-3.59297 0.544033 5.2754 104 90 94
-3.60688 0.58889 5.31221 24 18 28
2.87831 1.1278 6.70806 142 115 105
2.17217 1.25847 7.51778 98 60 42
-2.44126 1.15446 7.10299 86 44 29
-0.434695 1.50661 6.2515 84 46 37
-0.191556 1.6408 6.1486 78 50 48
1.80582 -1.70167 5.64738 110 8 6
1.90133 -1.61387 5.50784 106 60 34
1.60617 -1.64615 5.91517 162 138 125
2.22735 -1.44117 5.37357 156 133 124
-1.57626 -1.75211 7.03408 172 115 93
1.8952 -1.41622 5.6531 124 14 10
-2.9958 -1.23028 6.42077 172 116 98
-0.784832 -1.28232 7.16278 70 44 19
-3.30301 -1.09243 6.41481 115 75 56
2.40859 -0.989971 6.59691 80 76 58
-0.916153 -0.886106 7.09282 175 126 104
-3.56639 -0.704685 6.76104 157 144 124
-3.52192 -0.588377 6.75486 200 148 119
1.77756 0.0198449 7.33272 104 64 34
1.83334 0.250349 7.21729 84 40 15
1.54273 0.350891 7.54317 150 128 107
2.99 0.358244 6.68568 109 82 62
-3.70855 0.348972 5.12246 64 0 1
2.29792 0.455696 6.80226 148 122 110
-0.733883 0.537636 7.53076 168 122 104
-0.81356 0.550541 7.53895 113 68 54
1.58949 0.670296 7.30337 66 30 20
2.06918 0.704478 6.63167 132 90 74
-3.56534 0.573521 5.32347 79 65 68
-3.94461 0.599225 4.99072 106 8 8
1.54418 0.874104 7.4684 82 54 34
1.64283 0.944961 7.5519 77 46 26
0.0205533 0.817676 5.62248 92 21 12
-2.64594 0.915019 7.04126 87 38 18
-0.223467 0.822197 5.61912 66 12 4
2.27482 1.03951 6.63132 116 21 24
-0.243904 1.01384 5.84153 141 130 128
-0.388894 1.01668 5.76103 188 164 156
-0.386224 1.07735 5.71656 93 81 77
-3.856 1.00519 5.26196 32 20 26
-1.17112 -0.422779 7.10517 99 55 40
-3.55441 0.674614 5.36878 84 62 69
2.10572 -1.67202 5.3296 113 9 10
-1.69501 -1.6362 7.20744 34 12 4
-2.71656 -1.37384 6.60952 150 98 69
2.25557 -1.23973 6.01435 138 103 88
-3.15647 -1.20994 6.37301 34 14 8
-3.25031 -1.13269 6.38897 47 20 11
-3.35391 -0.852973 6.71521 46 16 10
-1.35994 -0.758534 6.82724 190 148 127
-2.74234 -0.464505 6.48266 104 58 33
-2.65313 -0.330758 6.37271 86 43 21
-2.72686 -0.308661 6.33863 141 95 74
1.6563 0.181194 7.25066 89 56 26
2.09325 0.698232 6.68071 131 90 74
1.60771 0.837519 7.2784 120 100 85
1.61883 0.959619 7.32299 76 40 20
-3.73496 0.724255 5.1623 19 16 33
1.88167 1.06962 7.21856 172 146 136
1.68441 1.11571 7.15915 161 140 130
2.5771 -0.344936 6.2317 106 78 80
2.81596 -0.175838 6.38582 173 144 124
2.03681 0.356314 6.82982 146 120 106
2.13763 0.401702 6.78365 150 124 109
2.24179 0.447177 6.69062 147 120 108
2.2873 0.452174 6.71844 144 116 106
-0.345783 1.20475 6.03 130 116 110
-0.582814 1.377 6.10945 98 63 54
-3.72316 0.544905 5.13529 91 66 72
-0.971832 -1.97847 7.49503 48 30 14
-2.9302 -1.60577 6.64768 50 32 16
-1.43656 -1.37485 7.19259 168 108 84
1.77519 0.109108 7.2337 142 112 96
1.86408 0.288104 7.34483 87 44 20
1.72998 0.779715 7.20295 94 33 36
-2.49519 0.947249 6.97407 156 100 72
-2.00312 0.978794 7.15507 133 104 98
1.6331 1.136 7.13212 162 142 133
-1.11564 -1.37243 6.99863 34 14 9
-2.5068 -0.365057 6.3569 78 40 18
-2.73131 -1.51077 6.82593 150 144 94
-1.43765 -1.38386 6.96501 176 112 90
-2.8314 -1.16789 6.45145 167 106 88
2.36773 -0.313893 6.28547 168 144 131
-3.13763 -0.21698 6.55907 49 14 6
1.68481 0.276803 7.52742 158 136 120
2.25885 0.437385 6.77365 148 122 112
-0.953075 0.719217 7.3983 158 116 102
1.71159 0.757875 6.90531 92 64 63
0.248826 1.33451 5.95751 156 28 28
-0.731388 -1.42645 7.25708 138 136 89
-2.99344 -0.751199 6.62448 154 101 76
1.8139 0.296349 7.14439 89 49 24
-1.10242 0.400538 7.4523 172 130 115
1.82085 0.525737 6.98884 173 144 135
1.46194 0.888035 7.02238 78 43 22
-1.75692 1.07092 7.5303 166 135 124
2.44688 -2.38542 5.96611 128 11 8
2.07859 -2.58797 7.13388 102 87 52
1.63637 -2.41852 6.7587 98 70 26
1.57213 -2.16933 6.5234 104 66 28
1.54174 -2.05793 6.2633 94 68 34
2.23077 -1.64264 5.04169 115 74 44
1.57435 -1.84105 5.8559 109 64 30
1.51004 -1.96341 6.29667 147 124 98
1.62983 -1.8301 5.89041 140 97 66
1.57016 -1.82416 6.46348 100 92 70
1.78437 -1.52557 5.61783 108 65 44
1.56304 -1.60227 5.97978 81 76 59
1.6264 -1.6185 6.02749 92 87 71
1.63772 -1.57535 6.01659 161 138 126
1.60792 -1.711 6.56277 142 123 99
-2.95074 -1.6834 6.62309 150 143 92
2.35723 -1.40621 5.48319 80 58 49
-3.19375 -1.55213 6.40709 86 56 36
2.38398 -1.33237 5.49247 170 152 146
-1.53737 -1.60215 6.90955 176 114 88
2.62233 -1.25515 5.47478 200 186 184
-1.51516 -1.56197 6.89652 90 26 9
1.68128 -1.39671 6.18084 102 61 30
1.78713 -1.32693 6.06324 92 47 18
1.88961 -1.27644 5.86027 156 116 96
1.90405 -1.26035 5.91436 97 58 27
2.2632 -1.15029 5.46347 155 128 117
2.64782 -1.20954 5.83462 156 134 122
2.34842 -1.31629 6.71389 164 154 109
2.03921 -1.38318 7.05131 161 154 104
2.14669 -1.37352 7.00196 164 158 105
2.04165 -1.33928 7.0761 128 76 34
3.18087 -1.22435 6.91498 53 34 22
2.36636 -1.09782 6.63548 86 81 64
-2.77793 -1.14332 7.0181 96 56 27
1.96529 -1.11515 7.08257 88 47 14
2.19471 -1.0954 7.08762 164 154 108
2.54329 -0.960126 6.23917 162 135 124
-2.88286 -1.0242 6.72035 130 77 58
2.5209 -0.996001 6.68559 182 152 142
2.35701 -0.89969 6.13407 181 112 82
2.05483 -1.02394 6.98419 83 18 8
2.53449 -0.904057 6.23089 124 18 13
-1.81215 -1.10163 7.86956 130 92 56
2.32021 -0.911716 6.64032 72 76 57
1.74911 -0.91658 6.72773 174 138 114
2.48857 -0.81346 6.20745 175 87 60
1.68336 -0.888783 6.73288 164 132 110
-1.79017 -0.983765 7.44704 118 74 42
-2.04885 -1.00386 7.97384 90 68 27
-3.76721 -0.544793 4.73708 28 36 58
2.96778 -0.699447 6.11018 170 142 111
2.18144 -0.815964 7.02875 154 154 108
2.43494 -0.67314 6.16001 170 75 46
-0.852943 -0.773641 7.21478 22 5 0
2.57117 -0.654575 6.31348 67 19 12
2.9544 -0.642132 6.20281 168 124 98
1.66444 -0.690272 6.80649 164 132 112
3.06251 -0.600547 6.18299 62 45 32
3.06045 -0.610019 6.3991 146 88 59
2.86511 -0.594297 6.26442 172 101 69
2.04456 -0.677527 7.07718 132 84 62
2.13358 -0.678166 7.08687 68 86 68
2.34823 -0.583846 6.25642 15 11 12
1.99515 -0.624106 7.03473 72 36 20
2.85032 -0.537112 6.30088 188 118 92
1.68983 -0.576796 6.97444 60 30 6
-0.969337 -0.60269 7.20219 24 6 2
2.92623 -0.500428 6.35161 164 86 51
1.8118 -0.569701 7.00159 166 132 111
1.97492 -0.556589 6.92756 103 72 50
2.65039 -0.474137 6.2732 28 17 12
3.03527 -0.453655 6.38707 144 80 49
-0.942459 -0.539132 7.23059 102 60 39
-1.4723 -0.423504 6.60348 158 111 89
-1.50097 -0.41391 6.52645 156 102 74
-0.93594 -0.426867 7.39892 144 103 80
2.91571 -0.300319 6.36708 91 48 26
2.98517 -0.244523 6.31919 160 144 120
2.81915 -0.230057 6.3284 186 152 133
1.87973 -0.261648 7.04752 100 66 44
1.8248 -0.190199 7.10806 165 134 112
1.7164 -0.189617 7.24061 28 10 3
3.03377 -0.123825 6.88681 104 70 46
-2.08857 -0.0971455 6.34613 150 101 86
1.67648 -0.103298 7.88178 155 143 118
-3.20742 -0.0811249 7.20775 162 118 92
1.74265 -0.0341071 7.46201 90 68 46
2.18893 0.0245609 6.70884 162 116 98
3.30965 0.0725278 6.7137 99 75 44
1.74092 0.0468171 7.54309 39 20 5
2.26562 0.0683748 6.68093 45 19 7
3.04459 0.0763939 6.5613 182 154 132
-3.58092 0.0751547 4.91814 156 139 137
3.78474 0.0931221 7.3815 162 142 118
3.21654 0.0986419 7.17352 78 52 28
3.60517 0.107214 7.26878 102 68 36
2.21336 0.156704 6.67304 150 126 112
-3.46757 0.136667 5.58141 136 97 34
3.56862 0.18449 7.07408 146 100 73
3.54896 0.3003 7.19546 31 11 4
3.50677 0.305937 7.21288 144 126 106
2.20263 0.298376 6.96256 153 131 117
1.58678 0.31434 7.85162 120 104 78
3.412 0.358937 6.92635 41 16 4
1.56718 0.419548 7.57505 130 100 79
1.93012 0.479052 6.65091 210 167 152
1.57204 0.507293 7.11068 164 137 125
2.10443 0.515875 6.93466 176 126 101
3.53469 0.538419 6.99153 166 144 130
2.99097 0.519145 6.20423 173 154 142
2.47502 0.554831 6.5425 151 106 84
2.08652 0.58427 6.59026 117 70 46
2.39618 0.584555 6.41485 112 65 42
2.23395 0.611178 6.4149 158 107 84
2.04747 0.642279 6.6256 131 87 70
2.38919 0.624823 6.39391 150 102 82
2.46049 0.654646 6.46945 120 74 50
2.33534 0.662627 6.42759 149 98 72
3.03757 0.722027 6.52673 153 78 52
1.84035 0.795181 7.00247 110 83 81
3.29779 0.839713 6.68598 171 152 134
3.17049 0.843621 6.63315 40 14 7
3.13108 0.881359 6.61345 180 151 136
-1.72259 0.931347 7.70897 121 69 38
3.35842 0.936752 6.86002 51 32 17
-1.70228 0.942992 7.24468 210 162 130
3.36249 0.981069 6.93627 180 154 136
2.24181 0.99084 6.63364 120 58 58
-2.44952 0.973487 6.98339 88 40 22
-0.891952 0.960008 6.20881 104 76 65
2.44941 1.04431 6.57675 149 78 70
0.586533 1.00571 6.21173 140 122 115
0.103987 0.985414 5.74064 136 107 102
-0.165925 0.998289 5.79202 113 28 22
2.06342 1.17806 7.08158 204 178 170
-3.65811 0.931217 5.39557 22 16 30
-0.842305 1.07308 6.20967 124 98 90
-3.85165 0.964768 5.23502 80 53 56
0.142171 1.08671 5.70847 118 103 99
-0.372062 1.12929 5.7262 143 128 122
-0.867954 0.612723 1.94176 146 116 110
-3.87106 1.05505 5.32655 79 52 56
-4.08867 1.0795 5.40513 142 34 26
0.0467782 1.21709 5.79795 136 115 110
-3.83238 1.14352 5.45939 126 18 16
-3.80232 1.22079 5.80582 151 129 116
-0.548409 1.5351 6.28236 62 24 16
-0.396466 1.55195 6.22046 172 148 142
-0.140197 1.64856 6.17745 138 114 116
2.47831 -1.90683 5.6197 86 52 25
1.55004 -2.12115 6.32094 150 130 108
1.67302 -2.03326 6.08042 154 134 113
1.73103 -2.10849 6.48628 98 62 26
1.77987 -2.06498 6.35196 108 64 30
1.49708 -2.07653 6.54367 149 145 96
1.52181 -1.96087 6.1822 94 62 26
1.80014 -1.87033 5.94961 113 8 5
2.06859 -1.64585 5.26497 120 8 9
1.51184 -1.9678 6.44554 102 62 28
1.62386 -1.74943 5.79625 100 56 22
1.59532 -1.92802 6.48698 146 126 104
2.33774 -1.58812 5.30398 204 186 182
2.06149 -1.63798 5.59956 167 138 130
-1.154 -2.0022 7.05955 62 40 22
1.52854 -1.73832 6.22111 154 130 112
-1.04948 -1.96832 7.1139 61 42 16
1.53748 -1.79258 6.46549 89 86 66
-1.55285 -1.93931 7.0564 63 42 21
-1.24066 -1.90515 6.93751 38 19 6
1.58292 -1.6712 6.07276 156 132 114
2.4295 -1.49646 5.46256 97 78 72
2.28274 -1.4533 5.36816 145 118 106
1.58436 -1.77564 6.71608 150 146 100
1.57535 -1.69581 6.41096 148 126 106
2.4453 -1.43961 5.47681 144 126 117
-3.10422 -1.74115 6.82971 52 31 8
-3.44034 -1.76662 7.06567 62 36 10
1.61171 -1.61832 6.44423 158 132 112
2.3208 -1.37777 5.52434 52 30 20
2.43175 -1.32215 5.42246 230 214 212
-2.86904 -1.63424 6.81007 156 146 98
-2.90862 -1.59 6.66008 40 22 14
-1.23866 -1.64915 6.88399 42 11 6
1.60872 -1.55466 6.47188 98 65 28
-3.29879 -1.50373 6.39742 58 28 10
-1.74923 -1.71788 7.26215 147 144 94
1.71121 -1.4848 6.28742 152 128 114
1.75293 -1.36749 5.90211 170 140 129
-1.00317 -1.60823 6.98037 28 10 2
-2.83375 -1.53267 6.71811 38 20 4
-3.23408 -1.39813 6.21179 148 102 74
1.88279 -1.30799 5.80154 175 148 139
1.75943 -1.35233 6.04511 100 55 26
-2.76492 -1.49929 6.76665 150 146 94
-1.63881 -1.56391 7.06394 177 112 84
-3.34122 -1.38523 6.32202 110 70 46
-1.49378 -1.51907 6.89408 179 114 87
-3.54207 -1.38644 6.45198 66 44 20
1.98692 -1.24898 5.81509 174 146 134
2.4188 -1.15498 5.66839 109 68 42
2.33054 -1.1553 6.77266 159 155 102
2.87396 -1.14645 6.72854 160 142 132
1.99084 -1.18412 7.20939 158 154 108
1.96344 -1.11261 6.98384 102 54 24
2.76573 -1.00912 6.39584 68 22 13
2.35451 -1.06512 6.79051 68 76 50
2.46662 -0.958075 6.21057 122 16 13
2.67407 -0.984142 6.39397 162 141 131
2.0267 -1.13978 7.37015 162 156 105
2.31311 -1.0052 6.80642 159 155 104
1.83379 -0.997876 6.88332 101 31 14
2.55017 -0.855192 6.12772 112 52 24
2.3828 -0.84694 6.11137 131 15 16
-0.748494 -0.997466 7.1211 25 10 10
2.34146 -0.94483 6.78821 72 70 52
3.47741 -1.01715 7.26983 99 76 67
1.81101 -0.921794 6.75399 168 134 113
2.25248 -0.976034 7.19375 162 154 104
-1.9447 -1.09314 7.97645 140 135 82
2.31117 -0.802431 6.07976 164 72 47
1.96221 -0.923295 6.95413 120 46 24
2.34029 -0.913239 6.90163 160 155 106
-3.03447 -0.883884 6.67727 200 142 111
-2.44001 -0.995378 7.5331 122 86 54
-1.87889 -1.04443 7.90297 122 80 53
1.68836 -0.861612 6.73058 168 138 116
2.60584 -0.772258 6.16478 97 42 16
2.20205 -0.909802 7.16157 78 28 16
1.96584 -0.817651 6.86157 60 35 20
2.50508 -0.706272 6.13206 184 102 74
3.01332 -0.726663 6.28238 138 88 56
-3.50448 -0.798478 6.79564 175 119 94
-0.650914 -0.839711 7.12036 91 68 30
1.63067 -0.780129 6.79185 58 27 8
-1.88714 -0.899474 7.6896 142 96 70
-1.4651 -0.780967 6.89817 138 88 60
2.52324 -0.750642 6.78311 199 170 157
2.60283 -0.661652 6.1194 144 91 68
2.21252 -0.770643 7.0681 154 153 102
2.09316 -0.761261 7.10289 10 5 2
1.59962 -0.706127 6.69481 172 139 116
1.70036 -0.712276 6.78354 66 34 22
1.83879 -0.713561 6.89529 166 134 114
-1.60733 -0.707763 6.87642 186 136 108
1.96931 -0.687971 6.9684 150 110 90
-1.68742 -0.648143 6.68407 173 122 91
-0.81562 -0.695246 7.17393 128 83 58
2.70579 -0.57499 6.19326 115 48 17
2.6365 -0.56079 6.20952 136 84 61
-1.6036 -0.64247 6.88794 104 62 31
1.78228 -0.620918 7.03006 157 126 104
2.42904 -0.537118 6.23905 15 11 12
2.06997 -0.60832 7.05372 20 10 5
-2.30635 -0.5419 6.31937 94 50 22
-1.84184 -0.527032 6.28286 158 112 92
-1.76225 -0.529915 6.39872 138 101 82
2.63578 -0.498163 6.25556 29 20 18
2.48463 -0.492297 6.39017 30 23 24
-2.64347 -0.544137 6.73141 100 55 31
1.79408 -0.53912 7.10535 92 47 20
-3.4088 -0.521589 6.77313 25 6 3
-0.841123 -0.546413 7.24102 156 144 118
2.3878 -0.563944 7.51215 164 156 130
2.5394 -0.498464 6.97344 173 142 128
-3.28811 -0.49351 6.74949 104 58 40
2.67233 -0.423128 6.30952 138 96 78
-2.61419 -0.475652 6.73044 85 42 22
2.11298 -0.50246 7.26615 152 142 120
1.86632 -0.47852 7.00666 158 127 106
2.33088 -0.43803 6.89363 161 128 112
-3.5412 -0.381455 6.81715 100 67 40
2.14328 -0.316172 6.34578 202 136 99
-2.26095 -0.317274 6.2206 147 88 56
1.76988 -0.349772 6.87525 176 144 124
2.12455 -0.392619 7.35114 162 153 132
2.68104 -0.414205 8.17659 164 154 130
2.99095 -0.277513 6.40601 67 28 6
1.90693 -0.31691 7.02059 80 50 22
-3.1486 -0.285849 6.78561 30 8 7
-1.56822 -0.268992 6.62956 149 97 80
-3.45927 -0.276613 6.86151 160 146 128
1.70088 -0.254851 7.23008 178 147 123
2.40166 -0.289103 7.87855 117 106 74
-1.53576 -0.230185 6.75968 98 50 26
2.59862 -0.261659 8.0283 56 62 35
-2.10698 -0.15889 6.23584 168 115 98
-3.27514 -0.200114 7.01511 42 12 4
2.15357 -0.132322 6.44703 167 92 54
2.229 -0.12972 6.41353 172 101 68
-2.70226 -0.149304 6.31018 91 45 23
1.75636 -0.155683 7.18944 115 96 63
-3.64225 -0.0741951 5.30346 124 17 17
-3.32469 -0.14428 7.04577 157 142 118
1.74984 -0.104708 7.34601 24 16 8
1.65799 -0.096752 7.28265 19 13 15
3.02398 -0.0494324 6.4845 182 158 137
3.04973 -0.0587271 6.88609 34 12 2
1.77852 -0.0507079 7.30593 144 115 92
3.00066 -0.0111463 6.73355 34 13 3
2.26285 -0.0444399 7.69087 80 50 26
-2.69325 -0.0185111 6.45577 105 58 34
-2.0559 -0.0484792 7.70568 142 134 106
2.23057 0.0201422 6.5804 166 125 100
2.31524 0.0256724 6.54745 124 93 77
-1.96019 -0.0259424 7.63883 70 21 8
-2.9295 -0.00170006 6.91141 182 133 110
-2.51792 0.0210034 6.66352 103 55 33
2.94935 0.0551278 6.69178 134 107 83
-3.16048 0.037454 5.90354 122 12 9
2.18226 0.0702047 6.7728 14 12 10
1.76295 0.0613716 7.41008 129 101 78
-2.72594 0.0490613 6.72795 176 127 98
-2.07553 0.0374967 7.58992 60 20 10
3.17356 0.0969427 6.64367 65 36 14
-2.01277 0.0404529 7.62888 52 16 10
2.27803 0.0803368 7.18987 158 130 117
1.59206 0.0978884 7.5136 108 72 38
3.21699 0.144103 6.79145 180 156 138
1.61999 0.188131 7.15713 94 62 28
3.11165 0.206256 6.63449 34 22 18
2.00208 0.215893 7.46334 144 120 103
-3.54352 0.186402 5.43941 74 11 4
2.19025 0.225401 6.78817 128 102 84
3.34681 0.268228 6.95533 145 126 106
1.80506 0.294308 6.88446 89 48 24
1.99683 0.298194 6.92948 145 124 108
-3.44766 0.251303 5.39468 148 100 36
2.34191 0.307551 6.74251 95 55 30
3.13611 0.391697 6.79453 145 124 106
2.53285 0.39681 6.71986 146 100 80
-0.163266 0.451152 8.16271 152 140 118
-0.0361581 0.390043 5.97045 166 151 130
-0.85142 0.422916 7.5156 130 82 65
-0.227694 0.393328 5.91595 162 150 130
-0.128596 0.399295 5.90342 76 40 22
1.597 0.515721 7.26627 165 140 127
-0.210603 0.454349 5.87284 116 38 26
3.08856 0.512506 6.47383 102 72 39
3.06219 0.541215 6.81329 96 55 27
1.55972 0.567378 7.37297 68 48 32
2.49341 0.54233 6.44064 92 50 27
2.01241 0.61094 6.67934 176 144 137
-0.200035 0.549749 5.88047 88 18 10
-0.459432 0.550763 5.73125 23 12 9
-0.791671 0.642715 7.41848 108 60 42
-0.609523 0.674073 7.62048 161 116 93
-3.74394 0.662805 7.80303 148 99 70
0.325696 0.632615 5.96536 139 38 26
-1.45695 0.701526 7.27415 144 87 66
3.15969 0.712762 6.6343 172 153 146
2.44666 0.714156 6.56029 180 157 151
0.335709 0.656214 5.80731 161 136 118
2.88463 0.748898 6.53378 140 110 95
2.56939 0.753552 6.47241 142 98 78
3.20249 0.779719 6.62999 40 21 12
-3.59984 0.623632 5.31773 24 22 38
-3.5609 0.631469 5.38632 84 66 68
-3.53891 0.780789 7.45954 146 96 73
1.62163 0.865373 7.31831 124 106 91
-0.722694 0.868293 7.35774 102 60 33
-3.52883 0.870748 7.44004 99 60 25
-0.843473 0.905689 7.49421 113 77 51
3.01231 0.882198 6.57526 47 22 11
-0.830741 1.01257 7.82124 102 66 42
-3.76849 0.766067 5.29987 18 15 31
-3.6332 0.793333 5.41291 82 62 66
0.430296 0.896562 5.94013 152 136 118
-0.806825 0.918941 6.19786 160 136 122
-0.923893 0.949091 6.45756 159 132 120
-3.73467 0.827977 5.29032 80 62 66
0.0717905 0.920572 5.58435 142 22 23
-0.811468 0.992493 6.20919 97 72 64
3.17429 1.12655 6.78945 124 92 76
2.08355 1.15913 7.11052 178 154 148
2.39164 1.1154 6.65882 36 20 18
0.639685 1.0609 6.23896 88 62 51
-2.83338 1.15081 7.33336 94 50 30
0.145413 0.998663 5.71182 145 124 124
0.587099 1.08012 6.25975 150 132 121
0.242645 1.05325 5.93489 142 124 120
-0.201289 1.03759 5.73336 141 120 115
2.41859 1.21977 6.81155 176 155 149
-0.441324 1.06596 5.82481 146 125 117
-3.54529 1.056 5.62121 146 94 36
-0.303463 1.12933 5.71589 30 12 8
-3.9212 1.03248 5.28717 100 50 54
-0.396922 1.18719 5.93496 138 123 116
-0.541871 1.25222 6.38447 155 33 28
-3.838 1.09851 5.34614 62 2 3
-3.88409 1.15865 5.37332 118 18 15
-3.97106 1.17249 5.35711 127 14 16
-3.56097 1.35198 6.07126 156 133 120
0.178546 1.3823 5.91789 156 28 31
-3.85623 1.35627 5.91199 151 129 116
-0.550551 1.45653 6.14593 61 24 16
-3.84763 1.33089 5.60305 138 86 32
-4.03873 1.41041 5.61255 148 27 20
-3.90625 1.4848 5.71191 126 14 12
-0.472061 1.43438 5.12396 82 49 41
-3.80713 1.50025 5.73699 98 16 14
-4.12535 1.52832 5.79975 138 22 14
-0.222833 1.66874 6.15064 140 111 107
-4.00737 1.55916 5.74575 178 116 47
-3.91975 1.6001 5.55174 141 15 14
1.72791 -1.42929 6.09006 152 124 111
2.20219 -1.15923 7.09376 168 158 108
2.0931 -1.54433 4.71786 144 100 78
1.39721 -1.34011 5.61381 154 128 112
1.79707 -0.817329 7.02336 176 144 124
-2.14095 -0.921709 7.85775 126 106 65
1.95899 -0.764872 6.91118 162 113 93
-1.85665 -0.797759 7.41605 111 68 36
2.18249 -0.697992 7.04417 57 73 48
-3.43778 -0.625419 6.68003 124 68 48
2.38383 -0.426262 6.38875 17 8 8
2.39114 -0.508437 7.55752 165 154 130
2.78962 -0.389259 6.30981 168 106 78
-3.70915 -0.29948 5.01231 114 42 22
2.3952 -0.335801 6.3539 169 138 120
-3.64701 -0.256139 5.14593 112 30 16
1.55857 0.0125863 7.62802 152 140 116
2.19668 0.0275703 7.1256 150 122 108
-3.4347 0.44964 5.42742 120 24 16
-3.58552 1.04762 5.58757 124 16 16
1.80915 -2.43781 6.85417 156 140 121
1.56592 -2.14235 6.35725 149 130 110
1.68225 -2.03364 6.07467 156 137 115
1.47086 -2.06137 6.48779 149 145 96
1.80556 -1.87379 5.94286 116 8 8
1.6328 -1.75629 5.81065 100 55 20
1.60949 -1.92194 6.49666 148 126 106
1.65261 -2.03968 6.93036 149 143 92
-1.25347 -1.99144 6.93864 50 32 10
1.81102 -1.6363 5.74682 99 54 24
-1.16443 -2.00414 7.08375 60 40 18
1.55265 -1.75618 6.26183 152 127 110
1.56928 -1.79282 6.54287 90 87 67
1.58567 -1.70316 6.44217 148 126 106
-3.00917 -1.66072 6.50211 54 38 14
1.59047 -1.6676 6.58514 96 72 38
1.59243 -1.60475 6.3691 154 130 114
1.66217 -1.5504 6.37355 151 128 110
1.8361 -1.38921 5.76842 50 10 6
1.61602 -1.55074 6.47448 94 63 24
-3.27798 -1.48991 6.31918 61 30 12
1.72626 -1.44131 6.10448 151 124 111
1.70925 -1.46679 6.42906 94 64 26
-1.52984 -1.54195 6.87872 180 114 92
1.75468 -1.35731 6.04062 100 56 26
-2.7576 -1.49945 6.76735 150 146 94
-3.33179 -1.37673 6.31334 112 70 46
-1.63176 -1.54238 7.04412 176 110 84
-3.26201 -1.31912 6.30143 164 116 87
1.86492 -1.25336 5.98687 162 154 106
2.02 -1.19219 5.88437 96 62 35
1.97693 -1.23135 6.86296 100 42 15
-1.51584 -1.28264 7.28408 69 22 8
2.3655 -1.04912 6.53772 158 130 115
-0.694886 -1.11492 6.98397 96 68 30
2.09777 -1.10478 7.03998 78 13 6
2.33957 -1.05622 6.73832 71 78 56
2.98318 -1.06452 6.77437 67 20 11
2.43155 -1.00609 6.48593 164 132 122
2.0274 -1.15153 7.38698 161 154 104
2.47123 -0.951468 6.22193 127 15 14
-1.5453 -1.1176 7.23112 176 126 94
-1.6566 -1.10279 7.30205 105 69 30
2.47979 -0.903176 6.20395 124 15 12
2.58798 -0.865926 6.19585 112 52 24
-3.20556 -0.919985 6.63393 64 31 25
-3.57418 -0.934348 6.81878 121 117 73
-1.95191 -1.09878 7.98846 142 136 84
1.81117 -0.91033 6.77198 162 131 109
2.44743 -0.798504 6.24415 186 100 77
-3.23429 -0.868627 6.82389 42 14 10
2.39806 -0.84505 6.7385 156 126 113
2.61037 -0.770367 6.18287 100 43 19
-1.99978 -0.998591 7.93992 96 63 28
1.68353 -0.806271 6.74727 176 145 125
-1.78761 -0.884173 7.44825 160 116 84
2.40534 -0.685312 6.16287 168 69 36
2.49293 -0.747903 6.72502 188 158 146
1.71171 -0.7115 6.8078 76 44 31
-1.60983 -0.713833 6.87246 186 136 107
1.83799 -0.703966 6.88442 165 134 114
-1.89747 -0.792015 7.60917 108 67 32
2.34424 -0.623719 6.30483 18 12 10
1.98418 -0.693319 7.0209 162 124 106
-1.68612 -0.662588 6.7458 173 122 92
2.64022 -0.567998 6.21678 136 84 60
2.088 -0.616081 7.10248 22 10 4
-1.84644 -0.529869 6.32567 158 112 92
2.46212 -0.49215 6.21012 12 10 14
2.62662 -0.495572 6.26162 26 18 18
-1.94035 -0.486119 6.14539 172 120 94
-0.91798 -0.589425 7.25061 28 8 4
-3.72815 -0.349546 4.93951 161 149 126
1.78935 -0.539897 7.10128 98 53 24
2.5153 -0.504951 6.91135 174 143 130
-2.7998 -0.462673 6.3517 168 122 98
-3.49269 -0.505616 6.82307 38 10 2
-0.83245 -0.537058 7.23436 154 144 118
2.61972 -0.431806 6.34732 14 10 12
-2.45663 -0.43963 6.45921 124 82 68
-1.11666 -0.48771 7.20991 50 12 4
-3.13914 -0.445208 6.80161 160 112 90
-1.71072 -0.408991 6.44254 94 50 28
3.0581 -0.3914 6.57338 182 154 135
-2.98579 -0.372404 6.57541 146 100 79
2.34635 -0.430379 7.60388 40 21 3
2.37189 -0.391386 7.09095 96 82 63
2.15959 -0.403551 7.43844 161 151 129
2.17381 -0.315398 6.39273 189 122 85
1.74343 -0.377609 7.27078 200 172 150
2.69619 -0.303945 6.37434 106 78 76
2.43626 -0.369401 7.58156 164 152 130
-3.40529 -0.329269 6.88854 38 10 4
1.91662 -0.31264 7.0409 80 50 22
-3.33548 -0.289607 6.86433 147 97 76
-1.42788 -0.27608 6.74851 110 66 42
3.00835 -0.240074 6.59708 188 160 142
-3.16104 -0.284911 6.80495 30 8 9
-2.1972 -0.21621 6.16926 190 133 116
2.23215 -0.280044 7.68096 117 106 74
2.26349 -0.208183 6.82203 161 122 103
-2.43597 -0.189533 6.21975 191 132 113
1.79524 -0.213082 7.01958 168 135 113
2.54004 -0.257027 7.89849 54 62 34
1.91634 -0.183487 7.034 97 74 44
-3.27138 -0.207256 6.99666 44 12 6
-1.80337 -0.155185 6.44523 173 114 94
-3.38429 -0.190377 6.997 98 52 27
-2.35926 -0.156032 6.36674 186 128 103
-3.09702 -0.144045 6.90213 58 18 11
-1.24769 -0.14499 7.36011 180 136 120
-1.58005 -0.133608 7.61815 140 93 74
2.98205 -0.0508763 6.42674 183 160 137
1.67382 -0.0872774 7.317 18 13 15
2.23452 -0.0426387 6.29237 192 162 138
-1.40634 -0.0720405 7.28183 190 142 119
1.7844 -0.0490522 7.301 148 118 94
2.16856 -0.04381 7.45335 80 50 26
-2.70001 -0.0221066 6.4779 102 56 32
-3.00353 -0.0421575 7.02619 173 123 100
2.31729 0.0289175 6.56162 122 92 76
-2.48338 0.0220515 6.1417 104 56 34
3.13511 0.0690018 6.95922 142 118 92
2.09926 0.0809072 6.81065 158 130 116
2.14612 0.094275 6.69519 14 13 11
-2.76556 0.072136 6.91741 176 128 100
1.76385 0.0893287 7.2983 143 116 94
2.27515 0.135405 6.79112 155 128 112
2.66852 0.139512 6.71517 69 30 12
3.12782 0.162257 6.96194 157 133 108
2.48187 0.174365 6.986 143 114 101
1.59096 0.202341 7.39495 159 136 120
1.49909 0.207844 7.61803 149 138 111
-3.71147 0.185809 4.87342 32 16 50
1.92634 0.26728 7.4828 86 42 16
-3.03204 0.248474 5.7947 133 16 18
1.86026 0.316917 7.04295 91 48 24
2.3721 0.317094 6.78284 98 54 28
2.68983 0.340105 6.67875 198 177 166
1.65845 0.342652 7.06602 169 141 130
1.89746 0.415336 6.7196 101 56 26
-0.199202 0.394005 6.14014 162 149 130
-0.0374389 0.389429 5.94595 166 151 131
-3.71877 0.348715 5.14405 64 0 0
-0.261424 0.462531 6.73853 129 34 22
1.58193 0.499124 7.21366 166 139 128
0.295513 0.468686 6.25841 141 35 24
2.77436 0.498793 6.29488 94 54 25
-0.731768 0.521751 7.52036 177 130 112
-0.220684 0.465496 5.86566 122 38 27
-0.531969 0.489209 6.4441 144 32 22
-0.0693316 0.46154 5.69867 131 28 19
2.81229 0.564779 6.70953 94 47 24
-1.6267 0.611502 7.56688 202 158 136
-3.3882 0.597429 7.26864 170 123 96
-0.459493 0.552878 5.66994 23 12 12
-0.596863 0.671471 7.76708 162 116 94
-0.1463 0.576314 5.84061 80 20 9
-0.898266 0.761265 7.42745 150 112 94
-3.59289 0.610447 5.26999 20 20 33
2.25486 0.851732 7.28122 209 187 180
-1.49845 0.845543 7.33234 129 77 50
-3.51251 0.881419 7.39229 100 63 26
-0.562613 0.837311 6.29749 154 26 23
-0.932002 0.99643 7.43227 112 68 40
-1.31533 1.01039 7.27546 128 78 47
-3.46825 0.824805 5.46061 88 56 58
-0.936693 0.955377 6.4125 158 131 119
-3.73028 0.83156 5.25743 80 62 66
-3.43228 1.05801 7.16496 102 64 30
-0.807319 0.990634 6.18694 94 70 60
0.0663296 0.982177 5.7929 84 25 19
0.638312 1.05619 6.24083 88 63 50
-2.83046 1.14525 7.28982 94 48 30
2.13942 1.161 6.81933 180 156 149
-0.385218 1.01485 5.78271 182 152 146
-3.44628 0.974829 5.66033 130 21 20
0.390892 1.04648 5.86952 150 134 120
-3.67815 0.943383 5.39746 22 16 32
-3.53845 0.984862 5.56567 74 2 2
-0.197368 1.05395 5.76477 140 120 116
2.7842 1.24852 6.90013 178 160 154
-0.440031 1.07623 5.82475 146 124 118
1.8618 1.24018 6.71888 174 149 142
-0.0286245 1.09336 5.79872 141 121 113
0.17712 1.13703 5.68179 173 156 152
0.0534586 1.201 5.83041 134 116 110
-3.84668 1.10247 5.36461 62 2 2
-4.07896 1.14415 5.40931 160 132 116
-3.5505 1.34932 6.06152 154 132 120
-3.8482 1.33806 5.8795 152 128 117
-0.546141 1.47625 6.18331 60 22 16
-3.86618 1.33656 5.62793 139 88 32
0.299706 1.54784 6.39336 155 128 120
-4.00202 1.38737 5.65087 170 113 48
-3.91456 1.46369 5.86107 116 10 10
-3.78285 1.4948 5.68328 98 14 15
-4.10575 1.52694 5.75915 137 22 15
-3.86644 1.52764 5.73758 134 78 26
-3.99605 1.55989 5.72825 174 113 40
-3.94631 1.62667 5.64259 140 14 16
-4.23751 1.78126 6.19837 154 30 28
-3.64174 1.73026 5.83353 77 5 6
-3.79057 1.88743 5.58988 132 15 16
-1.64547 -1.89641 7.32222 66 39 23
-1.44256 -1.79158 6.93544 54 22 9
-3.40279 -1.59291 6.52666 66 44 14
1.69006 -1.39973 6.11995 100 62 29
1.95876 -1.35639 6.16487 119 72 40
1.93029 -1.31916 6.42089 160 158 103
2.899 -1.12716 6.65528 60 21 14
2.16821 -1.03287 7.12465 89 16 10
-1.08586 -0.906842 7.04275 134 90 72
2.26316 -0.847675 7.19478 156 154 104
-3.74947 -0.506114 4.9177 30 34 65
-3.08802 -0.679778 6.65779 158 106 80
1.80951 -0.599062 6.99492 162 131 112
-2.0273 -0.510169 6.15071 106 71 34
-1.77815 -0.529076 6.4768 143 105 88
-0.913111 -0.488175 7.33288 92 55 32
-3.42093 -0.224846 6.91941 106 68 42
1.89138 -0.130046 7.20082 50 30 18
-2.90614 0.0344555 6.93582 184 135 110
-3.45597 0.122842 5.27451 158 146 124
0.336866 0.659759 5.80818 163 136 118
2.60442 0.737241 6.53226 154 111 92
-1.59778 0.795994 7.40063 184 132 108
-1.13183 1.00297 7.21521 120 70 42
-3.5611 1.04138 5.79924 126 18 20
-0.581462 1.19717 6.46047 155 125 107
-3.7209 1.10388 5.96358 123 14 15
-0.553997 1.23605 6.25452 155 33 28
0.288833 1.20453 5.87315 162 30 28
-3.6504 1.13441 5.67392 148 90 30
0.124597 1.18607 5.60634 141 112 106
-3.87318 1.21773 5.33633 164 110 42
-4.03547 1.44181 5.65001 150 24 24
-3.40358 1.73805 5.77932 128 16 16
-3.08327 0.0983541 5.94853 132 16 17
1.90929 -1.5634 5.59606 164 136 128
1.72701 -1.52624 5.80273 160 132 121
1.83569 -1.40171 5.78729 96 14 13
-2.73962 -1.49685 6.76566 153 144 92
2.38324 -1.23988 5.76117 154 132 122
-3.60582 -1.35854 6.64868 64 38 20
2.1115 -1.37265 6.79274 161 158 104
2.36754 -1.21356 6.88024 160 157 106
2.90121 -1.19604 6.83594 162 142 132
2.52913 -0.937375 6.33211 138 26 24
-0.761803 -1.00557 7.19748 24 10 8
-3.59478 -0.942578 6.81027 123 120 71
1.77396 -0.879889 6.69359 168 137 116
-2.00458 -0.976252 7.93392 98 62 27
-2.19777 -0.956377 7.95581 122 118 68
-2.24964 -0.810016 7.67811 94 60 22
2.37507 -0.638923 6.32752 17 12 12
-1.84949 -0.700155 6.89593 104 65 28
2.33532 -0.564303 6.43155 150 119 104
2.08556 -0.613143 7.10936 22 10 4
-2.11215 -0.481729 6.15563 158 109 83
-3.48792 -0.509131 6.80845 46 15 4
-2.43822 -0.459756 6.26681 127 85 69
-3.11363 -0.463252 6.78828 168 121 100
2.33247 -0.433014 7.59494 36 16 0
2.47727 -0.376686 7.64931 164 152 130
-2.47365 -0.244089 6.30045 163 104 81
-1.03821 -0.298219 7.42491 158 120 106
2.46321 -0.182422 7.07665 167 90 51
-2.07481 -0.153213 6.78041 96 50 28
2.29981 -0.0768277 7.03048 153 120 106
-2.99972 -0.0277139 6.98513 174 124 100
2.79814 0.0323136 6.59537 18 10 6
2.30279 0.0379377 7.34142 153 124 111
-3.18131 0.0453057 5.99465 130 14 14
-3.18016 0.0835999 5.69057 130 14 13
-2.85743 0.0683904 6.79807 188 140 115
1.45964 0.168115 7.58883 148 138 110
-0.208214 0.42027 7.7165 152 139 117
-0.0351009 0.379479 5.91328 166 151 132
-3.37937 0.501777 5.45877 162 143 124
-3.62342 0.499033 5.21096 104 48 50
-2.37336 0.684719 6.74342 163 118 100
-0.768148 0.740283 7.45288 104 60 34
-3.31937 0.721772 7.20913 142 94 70
-3.25203 0.919265 7.12202 187 140 116
-1.16172 0.906559 6.37565 120 71 43
-1.2669 1.03063 7.64286 132 82 54
-0.95988 0.984564 6.45476 162 134 122
0.607178 0.97947 6.17623 92 70 58
-0.814513 1.01238 6.3282 97 70 65
2.84442 1.23685 7.04638 180 160 154
-0.40911 1.14251 5.74207 135 120 115
-3.6417 1.23293 5.7391 159 104 38
-3.80633 1.27324 5.70073 153 132 118
0.325362 1.57404 6.42174 156 130 120
-3.95111 1.35679 5.57111 166 112 50
-3.44319 1.75556 5.84859 130 16 16
-3.6042 1.75966 5.82829 93 5 8
-1.39817 -1.15908 7.02053 165 111 80
2.16273 -0.94928 6.95817 161 156 104
3.13169 0.296358 7.1678 175 148 134
-0.543305 1.07107 6.27904 156 32 28
1.79032 -1.72439 5.63179 123 6 6
2.31257 -0.83237 7.29481 156 152 104
-3.32252 -0.291485 6.88815 122 72 54
2.48148 -0.135047 6.53441 186 160 138
-3.60952 0.0256615 4.93754 160 144 143
2.69177 1.1243 6.42847 175 151 143
-0.00175365 1.16449 5.69866 128 109 102
2.3247 -1.36495 6.07083 167 142 132
2.02433 -1.49767 7.14796 159 155 102
2.04343 -1.31081 6.56817 160 157 102
-3.61097 -1.15634 6.70701 72 41 23
2.30857 -1.01465 6.26897 160 132 120
2.3877 -0.939067 6.77135 72 76 58
1.60906 -0.914827 6.89699 158 153 100
-1.6685 -0.960639 7.39625 173 123 92
1.50855 -0.802123 6.94113 150 148 97
1.94332 -0.68773 7.09536 162 131 112
-2.07707 -0.597517 6.45638 100 66 30
2.41708 -0.103877 7.27029 154 122 105
2.21684 -0.0596355 7.56448 77 51 24
-3.00591 -0.0166507 7.05298 176 125 102
2.40906 0.0453663 6.48779 186 158 136
-3.21647 0.205735 5.66572 166 116 56
1.96992 0.37189 6.80789 106 64 36
-0.402496 0.583583 5.70346 20 11 8
2.42427 0.656104 6.36213 124 76 50
-1.35641 0.736622 7.30026 198 150 124
0.361621 0.660103 5.91715 158 136 116
0.347383 0.658188 5.53175 154 138 120
0.344148 0.770784 5.90807 150 30 25
-1.27344 0.905428 7.35133 114 64 34
-0.930617 1.08051 7.10438 162 134 123
0.316822 1.57565 6.30404 158 132 124
1.77967 -1.59484 5.61996 120 72 44
1.74695 -1.50158 6.08815 156 126 114
2.19334 -1.3427 7.25437 140 73 44
-3.53022 -1.13356 6.64301 76 40 21
2.34336 -0.623884 6.22196 20 13 10
-1.64348 -0.332216 6.25692 138 90 75
2.61202 -0.196276 6.65109 184 158 142
2.24239 -0.0520203 7.20437 137 110 91
-2.91345 0.0814257 7.27365 184 136 111
-0.474048 0.483939 6.55098 140 34 24
-3.51515 0.611554 5.27446 86 62 64
-3.38994 0.83172 5.57417 168 141 126
2.5489 -0.577246 7.11093 162 130 116
1.79982 -1.39356 6.77335 158 156 102
-2.5664 -1.16062 6.53419 150 144 90
2.04815 -1.24033 6.99036 94 39 14
2.07976 -0.636127 7.03075 16 14 8
-2.62276 -0.424675 6.68982 100 60 34
-1.94824 -0.401316 6.1905 162 110 87
1.61486 -0.434947 7.22681 162 152 126
-3.19749 -0.220717 6.75967 38 10 4
2.22471 -0.142575 6.84433 157 124 106
1.71277 -0.10121 7.50178 33 19 6
-2.02619 0.0866603 7.54741 58 20 10
-0.313441 0.366763 6.01113 159 144 123
-0.767754 0.755046 7.39826 102 58 33
0.338346 0.72649 6.04313 143 30 25
-3.47397 1.00191 7.28204 100 64 30
2.04469 1.40866 7.2039 174 152 144
-1.7739 0.293587 7.40641 178 128 100
-0.824496 -1.18732 7.26116 55 23 10
1.73608 -0.0708068 7.58788 34 18 9
-1.15234 0.931546 6.8448 124 74 48
-0.332129 1.07472 5.94285 127 108 101
2.4085 -1.82316 5.58899 114 14 12
-3.7357 0.184968 4.9167 30 12 40
-3.42585 0.404499 5.45659 144 98 38
-3.42814 0.599526 5.47212 120 20 16
-0.188426 1.07277 5.76869 132 114 110
-3.71658 0.552191 5.2425 112 103 107
2.80635 0.472339 6.68145 154 124 110
-3.81381 1.20854 5.72553 156 134 118
-3.45495 0.420662 5.41155 100 6 5
-0.325901 0.585302 5.69737 26 12 10
-1.50518 -1.27723 7.2433 74 26 10
-3.67769 0.776184 5.30765 20 16 26
-0.239174 1.10188 5.74703 137 124 118
-0.484324 1.60835 6.21322 66 33 22
-1.40477 0.578702 7.78338 210 166 142
-4.03347 0.646118 5.09186 148 94 36
-3.85759 1.35502 5.76966 105 10 6
-3.88052 1.52593 5.78015 134 76 26
3.14217 0.673287 6.51115 169 150 144
-3.56489 -0.0759197 5.06487 119 15 13
-3.57945 0.0590943 5.14763 118 14 12
-3.65509 0.75228 7.58584 102 65 34
-3.79808 0.646575 5.15136 80 67 65
-3.46314 0.791346 5.58917 122 18 16
-3.8558 1.14636 5.60438 128 16 14
-3.56633 -0.0102742 4.93632 154 138 134
-3.78088 1.11655 5.79096 126 20 16
-2.69031 -0.682333 6.84609 152 110 92
-3.15903 0.285468 5.79638 144 13 15
0.201088 1.11599 5.75825 147 130 128
-3.8855 1.11407 5.43586 59 3 3
1.91962 0.81198 6.88506 181 156 145
-3.56176 1.14883 6.04024 156 138 118
-3.72495 2.01198 5.84997 160 134 128
-3.59526 1.82493 6.01795 128 16 17
-3.98603 1.45155 5.94486 118 12 16
-3.54919 1.17551 6.09487 158 138 123
-3.15056 0.165426 5.84145 140 16 20
0.0472522 1.06166 5.76108 149 130 124
2.21287 -1.22445 5.70572 160 132 123
1.86707 -0.277674 7.43454 72 50 20
2.66359 0.144352 6.71163 66 32 20
1.68979 0.268446 7.0661 98 62 34
2.21444 -1.24332 5.73786 164 139 128
2.16164 -0.900711 7.07674 76 22 14
-3.53747 -0.383094 6.80641 99 64 36
1.85406 -0.279228 7.39548 80 58 24
1.61139 -2.01272 6.14448 100 66 36
-0.782784 0.889011 6.29704 162 138 124
0.477688 0.87495 6.03086 153 136 118
-2.99478 0.778974 6.87592 164 117 98
-0.589146 1.37451 6.20721 146 112 100
-3.68119 -0.0388785 5.67011 163 148 127
-1.25054 -0.0936624 7.38761 180 136 122
2.11455 0.88114 7.02791 188 164 158
1.87475 -1.45232 5.67649 154 125 116
-1.3121 -1.58347 6.86847 170 104 80
-1.21418 -1.54965 6.88473 147 92 72
2.2051 -1.29743 5.53307 182 164 158
-2.96139 -1.24999 6.40745 160 104 88
-3.56798 -0.84698 6.78284 84 57 30
-3.08576 -0.797139 6.70242 96 38 21
-0.736271 -0.690895 7.14047 85 61 36
-3.26585 -0.447186 6.77702 50 14 5
2.24833 0.937105 6.59797 106 22 24
-3.44883 1.50957 5.99082 126 16 20
2.01173 -1.60084 5.4562 168 140 130
1.73212 -1.46221 5.90763 155 126 116
-3.0529 -1.1065 6.45894 174 112 88
-0.921445 -0.883087 7.0544 172 125 108
-3.51761 -0.589791 6.74773 202 152 116
2.64777 -0.567412 6.23389 135 83 60
-0.79222 -0.606666 7.21948 103 64 38
-2.1711 -0.389606 6.193 129 77 50
-3.54588 -0.372757 6.84025 94 62 40
2.4415 0.711021 6.54231 173 149 142
2.38591 1.11459 6.64442 26 21 20
-0.87525 0.682702 7.43568 140 102 82
-1.35594 -2.17699 7.67996 52 36 16
1.91957 -1.4851 5.63499 163 136 127
-3.5585 -0.915752 6.74451 123 114 77
-2.90301 1.02156 7.14468 92 44 24
2.02309 1.07097 6.56987 164 138 134
2.20138 0.432411 6.69406 150 122 110
-3.58722 -1.05807 6.75865 74 42 28
-0.667689 -0.72954 7.1585 148 141 119
-1.87915 1.044 7.39839 162 134 124
2.1814 -2.24991 6.09157 160 140 114
1.775 0.581036 7.04463 164 135 125
-3.00025 -1.33761 6.49094 164 112 94
-1.36626 -1.58129 6.85568 176 108 86
-3.13848 -1.38281 6.30918 28 11 8
-3.03687 -0.782742 6.69286 149 96 69
-0.69595 -0.780438 7.13429 102 62 34
-2.73366 -0.657308 6.74146 116 74 56
-1.7923 0.917196 7.35124 192 143 117
1.95337 0.952959 6.85607 115 87 80
-2.26151 -0.318847 6.21543 143 90 57
1.78104 0.785873 6.90393 99 76 78
2.57918 0.753289 6.48676 137 96 80
2.11647 1.17406 7.03154 175 150 144
-2.7336 -0.752109 6.7551 162 119 103
2.62375 0.328203 6.59834 182 157 146
1.58958 0.662867 7.26411 84 32 27
2.11387 1.21086 6.72962 120 76 59
-0.205899 1.57742 6.19225 55 18 16
-0.852184 0.574008 7.43408 106 64 44
-3.04253 -1.03989 6.50236 174 110 87
-1.09895 -0.481042 7.08589 56 16 8
1.73734 0.929397 7.20951 164 138 129
2.17573 1.25095 6.89817 112 69 50
2.06109 1.33793 6.98371 170 148 142
1.88297 0.40306 6.89125 104 58 34
-1.15475 -2.00594 7.29886 58 38 18
-0.883692 -1.1487 6.92338 30 10 6
2.45753 -2.53444 6.05918 156 148 97
1.68951 -2.50071 6.83229 100 68 31
1.59677 -2.19819 6.49342 152 130 107
-2.98893 -1.21042 6.3815 172 114 94
-1.14506 -1.21125 7.10957 115 65 46
-2.99886 -0.987728 6.68485 148 84 60
2.80341 -0.294189 6.30393 154 106 86
-2.52911 -0.0785482 6.32489 160 101 83
-1.87172 0.707021 7.47654 158 104 80
3.2833 0.663799 6.92577 200 183 177
2.03812 0.69206 6.67961 166 131 121
2.54668 0.768326 6.49258 132 92 76
-2.29216 0.851824 7.23112 143 97 74
2.42024 0.916056 6.65924 87 105 88
3.03508 1.07234 6.6917 189 156 132
-2.22666 1.14141 7.10751 82 45 32
3.0145 1.12461 6.73023 136 106 90
2.87973 1.12814 6.71114 144 115 105
2.73186 -2.71676 5.93764 118 81 45
2.70531 -2.37735 5.96065 16 12 12
1.80682 -1.98238 6.11675 160 140 120
2.34304 -0.93218 6.74423 71 73 54
-2.65008 -0.81534 6.77698 150 106 88
-2.69942 -0.537564 6.62017 132 92 70
2.64519 -0.138828 6.48237 164 125 102
2.56257 0.173041 6.63715 24 22 22
-0.14768 0.955168 5.68435 93 90 74
2.66642 1.25721 6.64268 132 96 81
1.78004 0.692333 6.93144 100 74 74
-2.87621 -0.948978 6.63498 40 12 5
1.72589 -2.5289 6.81742 102 70 30
2.02484 -1.26542 7.15977 110 64 31
-0.894309 -0.898327 7.25615 176 126 106
3.27018 0.62949 6.91064 174 156 150
0.280184 1.01357 5.77101 162 28 28
0.106927 1.14074 5.72477 32 16 8
1.793 -2.41692 6.79057 158 140 125
-1.80937 0.268775 7.30153 160 108 84
-2.89121 0.466451 7.02731 150 103 85
-2.85693 1.00535 7.05237 90 41 22
-1.73045 0.25856 7.46621 184 135 112
-2.16497 0.441808 7.31393 142 96 80
1.64399 -0.873594 8.15676 109 110 70
0.180334 0.803923 5.78138 160 27 26
2.6229 -2.63438 5.87401 206 156 130
2.43822 -2.45802 6.01582 98 60 22
2.0245 -2.54574 7.01308 104 90 58
3.72784 -2.27775 6.36272 96 68 24
1.54347 -2.14668 6.43613 101 66 28
-1.21108 -2.05538 7.13794 59 43 13
2.3848 -1.54878 5.27236 76 60 54
1.55933 -1.74651 6.48105 103 94 70
1.57107 -1.68975 6.38414 146 126 104
1.60467 -1.6533 6.25437 87 82 68
3.03825 -1.41997 5.42558 153 136 128
2.98393 -1.4063 5.46413 152 134 124
3.33265 -1.40333 5.70851 106 26 22
2.46945 -1.30172 5.36909 190 172 169
3.43446 -1.38442 5.74496 139 128 84
3.30241 -1.33858 5.69526 138 102 89
2.25155 -1.27182 5.56821 66 42 32
2.34289 -1.25957 5.51208 103 80 71
2.13495 -1.22993 5.77893 166 141 132
1.92045 -1.1648 6.94494 98 73 33
2.34241 -1.08957 6.57526 98 86 68
2.34906 -0.898745 6.11934 189 124 99
2.37685 -0.845974 6.13672 128 15 11
2.33484 -0.817939 6.12388 162 69 49
2.26877 -0.774808 6.14086 157 126 114
3.04948 -0.740615 6.21444 148 107 74
-2.18538 -0.872291 7.98212 83 48 19
2.14418 -0.687664 7.10967 76 94 78
2.83414 -0.604652 6.34958 150 78 44
2.85873 -0.59091 6.25796 183 115 82
1.68298 -0.633813 6.99494 156 132 112
-0.943528 -0.585449 6.9019 28 7 3
3.16421 -0.511248 6.29374 56 30 10
1.799 -0.523388 6.82558 51 14 4
3.09283 -0.494237 6.29926 178 142 126
2.61612 -0.461848 6.20793 25 16 9
1.75858 -0.267978 7.16892 98 71 42
-0.856424 0.338822 7.61999 170 123 102
2.48702 0.532547 6.43676 94 53 30
3.14188 0.78075 6.57853 31 10 7
0.386616 0.843561 5.92715 108 90 80
0.61907 1.01748 6.18053 98 74 66
-3.52857 1.03022 5.66765 121 15 14
2.40176 1.21162 6.76844 178 154 150
2.54967 -2.29533 5.85375 120 74 46
2.56733 -2.17324 5.78713 12 8 6
3.64464 -2.22696 6.33046 160 136 116
1.56859 -1.8059 5.88714 152 125 106
1.53423 -1.79847 6.45481 96 91 66
3.43018 -1.6419 5.74083 152 138 121
3.0804 -1.49919 5.38112 104 56 28
-0.973518 -1.75064 6.69409 34 18 4
1.61141 -1.62699 6.16349 90 82 74
2.95819 -1.4536 5.42521 118 78 56
1.61899 -1.56974 6.09133 86 73 64
2.24987 -1.37256 5.42307 96 69 59
3.13569 -1.36417 5.57748 157 139 129
1.65416 -1.45253 6.11877 157 134 120
1.68576 -1.42339 6.00609 156 130 118
1.7742 -1.36756 5.75629 156 126 116
3.18528 -1.32291 5.65094 160 138 128
1.66175 -1.36866 6.0146 101 64 28
1.88329 -1.3145 5.79574 164 137 127
1.89949 -1.27488 5.77681 171 143 134
2.89366 -1.18878 5.62987 178 156 150
2.07012 -1.36027 6.90039 104 28 11
-3.2709 -1.0786 6.32335 115 74 52
2.3306 -1.05521 6.7329 73 81 60
1.90883 -1.08406 7.01917 144 138 91
2.48887 -1.03396 6.67617 168 135 128
2.04386 -1.0115 6.93629 72 10 2
-2.53034 -0.975623 7.1254 98 62 34
1.9645 -0.981308 6.94141 126 64 40
2.33858 -0.912455 6.40156 158 130 116
2.32603 -0.867186 6.15854 134 10 6
1.93705 -0.903959 6.89484 96 28 6
2.61969 -0.775432 6.19176 94 36 17
-2.25153 -0.925952 7.99816 158 146 122
2.77458 -0.768475 6.25234 15 3 1
-1.59512 -0.771604 6.99353 176 124 96
2.3366 -0.723349 6.26259 166 130 115
-1.92446 -0.84697 7.82879 94 46 24
-2.35438 -0.765943 7.52483 131 88 64
2.83304 -0.697588 6.60023 134 86 64
-1.85313 -0.686428 7.20576 68 24 10
-1.58322 -0.622731 6.75314 102 59 30
-1.73016 -0.561611 6.72442 79 36 18
2.33668 -0.539434 6.32927 159 131 120
3.2396 -0.512072 6.36597 180 155 136
2.1708 -0.426679 7.61005 157 148 126
3.33905 -0.346287 7.07542 153 140 120
2.20111 -0.273541 6.37207 186 120 88
-3.11207 -0.258647 6.66665 31 12 10
2.19446 -0.289627 7.69683 120 106 74
-1.64403 -0.186038 6.64921 118 69 51
-2.16971 -0.0983372 6.20647 167 112 96
-1.92884 -0.106185 7.4183 84 38 22
-1.66818 -0.0670584 7.37606 184 134 108
1.58217 -0.0440677 7.56111 119 74 48
2.2545 0.0198351 6.60072 150 114 94
2.95213 0.0598137 6.67595 118 92 70
-1.97654 0.114489 7.48654 64 20 8
2.85055 0.126299 6.75116 114 93 76
3.70798 0.161617 7.15679 116 80 53
3.5363 0.162239 7.15774 48 19 6
3.71491 0.286202 7.15554 156 138 116
3.52171 0.299378 7.14884 32 13 5
-3.9357 0.571204 8.20573 100 72 39
1.60456 0.674224 7.38687 94 43 38
3.56426 0.664867 7.15342 166 148 137
3.37619 0.701422 6.7956 142 80 60
3.34193 0.868949 6.82312 174 148 132
2.21346 0.908746 7.03895 195 172 168
-0.856435 0.945508 7.0975 104 66 40
-0.199363 0.811683 5.66271 84 14 6
-1.06273 0.938334 6.71245 116 69 44
-0.679908 0.882662 6.11248 152 128 117
-0.820177 0.941565 6.42431 156 128 117
-0.586929 0.867779 5.82901 139 114 108
0.581141 0.937868 6.24096 149 132 116
0.583984 1.06968 6.20118 146 130 116
-0.445129 1.0556 5.77842 149 124 117
-0.535039 1.53995 6.35546 60 22 16
1.88707 -1.81097 6.1478 126 81 54
1.59611 -1.68578 6.12439 161 134 118
-1.65608 -1.88178 7.24349 60 34 12
-2.64247 -1.01962 6.42074 40 9 0
2.17211 -1.06243 7.13658 80 17 8
2.56695 -0.367886 6.29235 90 66 72
3.59354 0.355366 6.99873 112 80 48
2.72672 -2.61062 5.91088 110 82 42
2.49154 -2.33501 5.86919 132 12 14
1.65212 -2.4095 6.68659 103 66 26
1.75689 -2.41619 6.72328 154 138 122
1.58642 -2.1162 6.31877 150 132 114
1.6292 -1.97236 6.11819 106 66 34
2.54119 -1.58206 5.38549 178 159 152
2.8656 -1.55363 5.27677 116 78 52
2.79863 -1.55408 5.31753 162 142 132
2.58439 -1.5089 5.30693 170 148 142
1.61249 -1.61407 6.13778 90 82 73
2.66058 -1.53598 5.81596 150 132 126
-2.92281 -1.62145 6.67691 36 20 8
2.52746 -1.39533 5.43596 196 178 178
2.97392 -1.3281 5.53003 92 103 88
3.19051 -1.32615 5.65271 160 138 128
1.89177 -1.308 5.80203 166 140 132
3.06284 -1.1313 5.70751 149 142 98
2.00656 -1.22074 6.85325 81 32 12
-2.58641 -1.04944 5.99298 150 98 82
2.49997 -1.14596 6.57199 164 137 125
-1.6482 -1.10269 7.23992 103 72 36
2.43333 -0.938859 6.14674 120 12 10
2.3465 -0.986431 6.60427 79 82 64
-3.04746 -0.914328 6.51496 26 7 6
1.90037 -0.989055 6.9524 98 26 9
2.23632 -1.00234 7.17636 150 148 95
3.37747 -0.984312 7.10963 94 77 75
2.77327 -0.862284 6.35381 164 110 93
-1.99974 -0.988139 7.91713 95 58 26
2.34275 -0.842673 7.33737 140 138 88
-2.67851 -0.627824 6.90647 146 104 86
-2.41989 -0.558178 6.39141 136 96 77
-1.89652 -0.55887 6.5438 148 102 76
-1.72763 -0.558001 6.72315 76 34 16
-1.59817 -0.498191 6.60783 70 26 10
-2.2483 -0.424065 6.1773 216 160 120
2.72401 -0.358564 6.33808 40 14 9
2.19303 -0.284142 7.64995 119 106 74
2.42121 -0.231917 6.35026 96 52 38
-1.66787 -0.182682 6.78481 117 67 48
2.52803 -0.106505 6.39463 120 96 82
-1.40756 -0.0760084 7.27168 194 147 124
-2.09148 -0.0726813 7.79995 150 132 109
2.18864 -0.0562718 7.4997 68 41 16
2.29623 -0.0445664 6.43138 200 166 142
2.56326 0.0111814 6.59294 137 114 101
1.79669 0.103656 7.40425 146 116 99
-3.22153 0.160639 5.67389 147 98 40
3.51938 0.28475 7.14546 28 11 3
1.55591 0.418376 7.69861 116 96 75
-3.21667 0.360986 5.70764 162 143 122
0.106983 0.492723 8.15398 164 148 129
1.66814 0.433008 6.95627 159 72 41
2.60896 0.57252 6.42527 98 51 28
3.50806 0.640007 7.0495 163 148 140
-0.897655 0.752314 7.45137 144 106 88
-1.49023 0.862515 8.0407 192 144 123
3.19519 0.789879 6.62592 35 17 14
2.21837 0.859213 7.24252 230 211 204
-3.46571 0.868482 7.25807 100 62 28
0.285747 0.716196 5.60362 142 28 24
2.10408 1.25756 7.40936 114 72 56
-3.46428 1.06899 5.75765 157 134 116
2.34559 -2.36903 6.03765 156 138 108
-0.840128 -1.52386 7.34233 52 36 16
2.17181 -1.26054 7.01092 98 42 12
1.87215 -0.825645 6.76294 160 118 99
-1.87653 -0.924759 7.89577 164 118 86
-2.03776 -0.519596 6.17529 100 65 28
2.58933 -0.483974 6.16923 30 17 16
3.12964 -0.200093 6.83462 174 150 130
-0.764982 0.455956 7.4363 172 124 105
3.49759 0.424912 6.86907 110 80 48
3.06171 0.546404 6.78426 100 62 33
-0.502129 0.977195 5.78202 161 24 24
2.66189 -2.33867 5.91565 13 11 12
2.40674 -1.53992 5.39432 65 51 46
2.0915 -1.24568 5.57946 170 142 134
-3.58659 -1.34358 6.58444 66 38 20
2.84619 -1.23781 5.90387 176 154 148
2.24458 -1.21261 6.56626 154 150 98
-2.72661 -1.22522 6.95233 146 142 88
2.40007 -1.02536 6.44421 166 136 126
