ply
format ascii 1.0
element vertex 1337
property float x
property float y
property float z
property uchar red
property uchar green
property uchar blue
end_header
0.639466 -0.51982 5.67933 96 96 53
-5.26355 -0.341088 4.0857 184 177 159
-5.89814 0.235829 3.99833 135 130 112
-1.75188 1.6854 7.34574 77 39 33
-0.392959 0.927626 5.61856 162 136 125
-1.89664 1.74889 7.63208 41 27 15
1.24365 -3.95393 7.94175 90 98 57
-3.40299 -1.74191 7.29594 188 188 135
-3.35914 -1.8303 7.29337 188 188 136
-4.42601 -4.32011 6.5742 80 84 43
-0.526031 -0.989058 5.88587 119 122 102
-2.1094 -2.33849 6.69 190 193 144
-5.39762 1.76112 7.69504 88 87 55
0.9676 -3.37279 5.96152 108 118 78
-4.52673 2.22506 10.2565 82 87 64
0.808521 -0.735131 5.64151 93 74 31
-2.68042 -0.409185 4.37371 41 32 15
-1.84908 3.05701 6.30641 90 57 54
-2.22234 -1.43487 6.1844 192 197 150
-2.16549 -1.54685 6.15731 196 200 150
-2.14832 -1.20442 6.07704 190 195 148
-1.76236 2.86995 6.12051 79 40 37
-2.09519 -2.26994 6.81212 191 196 146
-3.39266 -0.0549246 4.20225 26 17 10
-1.64063 3.06837 6.41376 102 68 64
-2.57021 -1.62931 6.12625 96 97 62
-2.82623 -2.2909 6.68499 88 92 66
0.759825 -0.706065 5.64403 88 77 31
-2.26148 -1.39175 6.10962 195 202 152
-2.49626 -1.88267 6.09112 196 200 150
-2.97779 -2.16367 7.55676 191 194 142
1.86657 -2.53457 3.53249 80 81 61
0.703333 -3.78215 7.15149 152 156 106
0.766815 -3.24291 5.87356 90 98 70
-1.91753 -4.09018 8.26192 72 74 40
-4.27969 -3.89651 6.43092 66 66 34
1.70001 -2.16483 4.0609 171 171 121
-1.90385 -3.28857 7.32547 108 114 81
-3.8486 -3.14516 6.3669 65 62 35
-3.69007 -2.88693 6.4079 62 64 36
-3.6048 -2.7549 6.36366 71 69 40
-2.84176 -1.90281 6.30397 99 100 80
-3.06787 -1.82 6.174 109 106 82
-0.569855 -1.07469 5.02001 98 104 87
-2.25592 -1.43457 6.30069 172 178 131
-3.62538 -1.83852 7.61413 160 160 105
0.580701 -0.609354 5.8475 165 176 128
-2.9079 -1.31786 7.22319 168 170 123
-1.10876 -0.694016 5.4145 98 101 88
-3.39724 -1.30149 7.26626 124 94 57
-2.23083 -0.859976 4.96375 120 124 94
-1.45498 -0.456992 5.63593 98 102 90
-1.30687 -0.226195 6.25358 72 70 60
-0.61925 0.101209 6.99105 68 44 32
-1.54566 -0.176586 6.15612 64 70 58
-1.40524 -0.081264 6.25544 82 81 74
-1.52158 0.00854092 6.18449 72 72 60
-0.362084 0.429908 5.07952 187 156 149
-1.541 0.133657 6.3554 108 106 94
-1.21097 0.381927 5.59073 15 10 3
-4.46288 -0.598124 4.49312 50 61 42
-1.26891 0.506803 4.79788 66 64 48
-3.61215 -0.133173 5.19757 34 25 18
-3.50127 0.112376 6.45673 92 50 22
-3.24571 0.172838 3.85773 36 40 20
-3.46725 0.112275 3.78678 79 88 54
-1.68822 0.842723 4.60219 156 140 138
-2.51269 0.723766 4.8334 162 122 110
-1.69311 1.094 4.99365 99 78 73
-2.37075 1.12308 5.18673 116 94 90
-2.37014 1.35535 5.32913 120 96 90
-1.76832 1.80261 5.43828 94 62 58
-2.37587 1.59495 5.46693 123 99 93
-0.863961 2.86755 6.53399 89 56 48
-1.82828 2.41852 5.82745 128 100 101
-1.34203 3.02413 6.49108 89 56 54
-2.38252 2.52333 6.01885 120 94 89
-2.45678 2.56077 6.03703 57 19 14
-2.5317 2.96791 6.45716 154 110 94
-2.52935 3.06579 6.56162 112 68 52
0.472988 -3.61752 7.08459 40 54 22
-4.04779 -3.86478 6.51413 167 166 112
-4.03724 -3.79162 6.54798 110 108 90
-4.07435 -3.47636 6.4072 162 160 107
-3.34201 -2.78068 6.38603 60 67 42
-3.20974 -2.77188 6.42258 168 168 116
-3.41276 -2.56375 6.26709 48 53 27
0.753741 -0.734637 5.58045 66 53 14
-3.4363 -1.74814 7.55077 163 163 112
-2.01464 -1.21845 5.77543 128 122 82
-3.38976 -1.67259 7.56786 64 65 32
-2.86824 -1.44746 6.12767 67 70 44
-3.83372 -1.71557 7.67697 158 156 100
-2.24324 -1.0334 5.82805 62 64 18
0.0402069 -0.283796 6.92426 60 34 22
-1.32924 -0.569912 5.63085 53 56 34
-3.1191 -1.02995 7.4234 74 42 18
-0.11454 -0.0985596 6.56785 164 177 134
-3.35982 -1.00095 6.88449 164 168 115
-0.0337862 0.00133952 5.2068 162 172 124
-0.0247137 0.0743303 5.06653 188 152 142
-1.68115 -0.395824 5.81048 63 70 53
-3.73075 -0.799127 6.42908 160 158 104
-1.61376 -0.152585 6.20452 154 153 154
-2.29861 -0.29521 7.99483 86 88 66
-1.40958 0.0160743 6.26654 12 7 2
-0.208136 0.453472 5.78719 29 11 0
-1.50178 0.120079 6.26357 12 9 5
-1.69747 0.0762479 6.21405 130 128 124
-1.518 0.172676 6.17282 14 8 5
-0.551955 0.561314 5.3713 36 19 10
-0.542347 0.554957 5.11035 170 124 106
-0.50695 0.670169 5.22045 92 50 26
-3.22344 0.000531615 6.34986 49 24 14
-2.23967 0.272554 4.85427 86 61 43
-2.35168 0.418235 4.70083 124 90 79
-1.82259 0.714145 4.90607 149 111 90
-2.23646 0.60407 4.99805 46 19 13
-2.36318 0.573355 4.98899 41 13 7
-2.31959 0.639772 4.92147 178 154 152
-3.33577 0.40844 5.65875 160 114 90
-2.02491 0.76216 4.73044 172 134 124
-2.41692 0.696822 4.9275 80 42 28
-2.00399 0.87871 4.89856 64 30 24
-2.30429 0.843902 4.95208 76 44 40
-3.45265 0.348002 3.63439 24 36 15
-1.43444 1.39758 5.28647 34 10 6
-2.15745 1.20935 5.2269 51 20 16
-1.78631 1.45825 5.19706 94 66 63
-3.25745 1.36293 7.53269 62 26 12
-2.4287 1.35283 5.36614 51 20 10
-1.78223 1.64176 5.18942 95 60 56
-2.26806 1.58269 5.16739 64 32 28
-2.43793 1.60844 5.51053 66 26 20
-1.85894 1.80509 5.39363 52 18 12
-3.19483 1.82413 7.6857 59 22 8
-2.44636 1.82067 5.61595 60 24 18
-2.30175 1.89629 5.68014 50 16 12
-1.63401 2.41512 5.77161 112 74 70
-2.30888 2.22699 5.83354 73 24 18
-2.44025 2.19594 5.86429 56 16 10
-1.7171 2.51614 5.92412 63 25 21
-1.22367 2.8838 6.32269 108 65 61
-2.41124 2.37968 6.15029 109 47 30
-2.13268 2.4064 5.80787 113 70 70
-1.96571 2.52052 5.94471 73 30 28
-2.17906 2.43198 5.89018 114 72 68
-2.43201 2.47282 6.22322 115 54 35
-3.06558 2.34025 6.429 76 67 45
-2.32218 2.59192 6.03395 74 26 21
-2.8899 2.58387 6.57296 52 16 9
-2.44446 2.75579 6.36 110 54 36
-1.79584 3.04268 6.25286 76 40 40
-2.41801 2.86407 6.47191 112 55 36
-2.52447 2.89795 6.46464 76 26 18
-2.31061 2.95493 6.28867 71 27 22
-2.43544 3.03922 6.53635 148 100 84
-2.23799 3.07408 6.3332 143 109 104
-2.32108 1.63429 5.4484 68 34 30
-4.60113 -4.37967 6.53502 165 163 110
0.615492 -3.74458 7.14046 52 62 22
-1.81714 -4.13688 8.12676 170 169 118
-1.85826 -4.03404 8.03893 86 88 62
-2.11572 -1.34643 6.43658 168 174 128
-3.83325 -1.83173 7.53301 80 80 38
-0.122446 -0.146758 6.21285 40 44 16
-0.0754324 -0.0697731 5.78044 34 48 17
-0.425886 0.375689 5.07283 105 64 39
-1.52099 0.75956 4.66562 30 32 12
-4.29027 -4.21732 6.56945 167 166 109
0.413168 -3.56236 7.17306 168 172 120
1.07916 -2.02579 3.82694 170 173 118
-4.08335 -3.48105 6.41708 161 160 106
-3.96172 -3.29963 6.43823 164 160 104
-3.56632 -3.12657 6.46991 58 64 38
-3.76685 -2.90691 6.35048 164 162 112
-1.64747 -1.45261 6.19847 72 84 36
-2.08931 -1.48605 6.37596 174 180 132
-3.00719 -1.56837 6.19371 172 172 128
-2.06232 -1.21803 5.7152 128 121 82
-3.67425 -1.72571 7.33967 58 60 31
-2.17597 -1.16086 6.20336 52 60 22
-2.08619 -1.11726 5.94974 92 89 34
-2.75885 -1.22186 7.30912 166 171 121
-3.23805 -1.28718 7.06076 43 39 20
-3.33524 -1.26672 7.1153 120 92 68
0.369162 -0.189245 5.75138 166 176 132
-2.58916 -1.03215 7.24992 168 174 125
-1.60681 -0.624775 5.44904 44 54 30
-2.42016 -0.912792 7.96403 42 46 24
-0.863862 -0.353151 5.6391 126 118 86
-0.0767135 -0.0966721 6.63434 161 176 132
-0.780325 -0.227883 6.50262 28 11 5
-0.273262 -0.025806 6.99958 38 14 7
-1.67282 -0.394937 5.81026 62 70 52
-2.6401 -0.512287 7.11691 20 12 4
-3.73245 -0.794016 6.45072 160 158 104
-3.36871 -0.653725 6.76185 158 146 96
-1.62749 -0.151663 6.20382 152 152 152
-2.88757 -0.499848 5.4058 80 80 68
-1.43291 0.0150983 6.18776 14 6 4
-1.39579 0.179214 6.45233 13 8 4
-0.359962 0.464229 5.31185 94 50 24
-0.585479 0.54268 5.3297 44 26 17
-4.55839 -0.711523 4.64965 58 62 30
-4.72745 -0.725673 4.66208 162 152 130
-3.27828 -0.115733 5.28483 10 7 4
-4.7846 -0.630797 4.62281 55 62 32
-4.91168 -0.62869 4.54483 65 68 36
-3.41609 0.260143 6.26686 158 114 82
-3.4515 0.285591 5.78988 80 35 20
-1.54454 0.837698 4.66268 157 138 136
-2.42553 0.691084 4.92524 101 62 49
-1.95643 1.37446 5.7264 52 22 17
-1.79657 1.34945 5.16383 34 16 12
-2.1737 1.52829 5.25259 86 56 51
-2.30304 1.63614 5.44842 66 33 29
-1.76165 1.89261 5.42158 92 58 56
-2.3595 1.77628 5.62298 96 52 40
-2.45965 1.8198 5.63367 58 22 16
-2.29675 1.8939 5.64205 49 15 10
-2.17777 2.04357 5.64289 104 64 59
-1.85471 2.20016 5.63858 98 56 52
-5.86289 0.236719 4.09471 170 160 150
-2.29482 2.22733 5.82104 76 25 18
-2.45655 2.18479 5.86003 61 18 13
-1.78065 2.44819 5.75763 63 25 20
-2.46652 2.41647 6.12635 116 56 36
-2.16472 2.4846 5.73546 80 32 26
-3.05996 2.58559 7.18434 71 27 12
-2.91352 2.57343 6.56165 50 16 10
-2.13086 2.87741 6.32694 108 64 60
-1.64859 3.13406 6.34778 146 128 126
-2.43805 2.7968 6.39847 109 52 34
-2.46845 3.01862 6.49115 150 103 88
-2.13669 3.09048 6.24205 142 113 110
0.628123 -3.64823 7.11954 169 172 121
-2.03985 -3.91717 7.51351 84 86 60
-3.47398 -3.19153 6.52791 164 163 106
-0.095344 -2.60767 7.05016 56 63 22
-2.8977 -2.44355 6.55835 166 170 116
-1.63985 -1.74045 6.31487 92 94 47
-2.62138 -1.97604 6.39383 172 175 122
-2.36023 -1.67035 6.43751 174 180 126
-1.70189 -1.30608 6.08553 78 86 35
-2.86754 -1.46243 6.15513 68 72 48
-2.10827 -1.27013 6.4515 65 70 30
-3.402 -1.28477 7.23247 124 94 56
-0.56801 -0.275743 6.32475 82 53 33
-0.196596 -0.156587 6.08351 32 35 12
-0.035642 -0.00520422 5.21641 164 174 126
-0.148923 0.556127 4.90492 102 118 72
-4.63118 -0.657271 4.77985 55 64 34
-1.66332 0.765476 4.81407 110 79 66
-2.11085 0.658863 4.7037 172 142 134
-1.9903 0.711983 4.71032 106 66 47
-2.31512 0.638532 4.92543 178 154 152
-2.52479 0.593517 4.89761 176 128 102
-2.1235 0.703595 4.59218 168 131 120
-3.32726 1.12964 7.43118 88 54 38
-1.33108 1.97733 3.78418 84 61 48
-1.89931 -3.62284 7.64407 68 76 42
-3.69176 -3.40127 6.42796 162 161 102
-3.6775 -3.27692 6.50454 58 60 36
-3.51289 -3.24198 6.53106 162 162 105
-3.95973 -3.28439 6.46871 162 159 101
-3.73834 -3.04927 6.36688 52 59 36
-3.63098 -2.71469 6.44446 162 164 106
-2.97624 -2.33436 6.55738 58 65 40
-1.77933 -1.8644 6.60457 94 100 52
-1.64727 -1.72127 6.31802 90 94 46
-2.4823 -1.67282 6.42767 64 69 38
0.720981 -0.708824 5.58841 66 56 11
-2.73133 -1.30721 6.12921 64 70 39
-2.89013 -1.36565 7.34202 167 169 118
-2.58607 -0.905798 7.26992 49 53 30
-1.51241 -0.583135 5.66217 45 54 32
-0.346951 -0.0184535 6.86091 36 14 6
-1.66128 -0.162105 6.22173 154 152 152
-0.733571 0.275688 7.00782 48 39 18
-1.36395 0.184549 6.48072 14 6 5
-0.327976 0.453003 5.339 103 60 34
-0.84939 0.494888 6.27446 15 9 4
-0.493456 0.562712 5.27349 141 103 80
0.29294 0.941428 5.97732 172 169 156
-1.69912 0.572836 5.26284 9 7 4
-2.12677 0.731576 4.7501 151 116 102
-2.30169 0.922841 4.98082 56 30 28
-2.14747 1.52534 5.29111 87 54 50
-1.45683 1.7101 3.44417 170 162 154
-1.83431 2.28437 5.69981 96 54 50
-5.85695 0.241319 4.08154 170 160 150
-2.2814 2.20115 5.75978 82 30 23
-2.14162 2.41462 5.91237 114 70 66
-2.39725 2.47886 6.30779 114 52 34
-2.37979 2.4574 6.00451 104 54 44
-2.27092 2.58485 6.01065 80 30 26
-1.73772 2.85959 6.07405 80 45 46
-2.1064 2.74529 6.08412 110 70 70
-2.26205 3.12121 6.38906 142 110 104
-2.83728 -1.33211 6.26331 166 171 124
-3.65706 -0.133095 6.18038 113 73 51
-2.22612 0.715073 5.05298 180 158 156
-1.28428 3.04573 6.3857 146 130 126
-4.04009 -3.90332 6.53396 166 164 110
-3.76942 -3.63002 6.58232 164 162 106
-3.1981 -2.84455 6.51337 167 167 113
-3.92834 -1.72472 7.69217 158 154 96
-2.77668 -1.21165 7.14857 168 174 123
-2.87044 -1.2164 7.34941 51 54 30
-2.56696 -1.04415 7.31238 168 174 124
-1.27161 -0.272423 6.08718 28 10 6
-2.17718 0.624708 4.99355 46 16 10
-2.18698 2.96525 6.21239 62 25 22
-3.95719 -3.26677 6.46891 162 158 102
-1.81714 -2.95448 7.11705 64 80 38
-3.086 -2.39207 6.39846 62 66 39
-2.79738 -2.04274 6.52548 66 70 46
-3.04167 -1.98015 6.19872 65 68 45
-1.57091 -1.12952 5.76051 140 135 106
-0.68041 -0.864627 5.13309 166 178 130
-3.20054 -1.35152 7.17463 56 56 30
-3.60158 -1.03946 6.72181 137 90 62
-0.115123 0.328692 5.08976 160 170 129
-2.99266 -0.172248 6.56256 12 7 4
-1.25856 0.270026 4.26264 90 60 47
-3.36823 0.00491052 6.14844 95 81 74
-1.79176 0.794055 4.81639 164 124 109
-1.81227 0.828749 4.66321 164 131 120
-2.15788 0.83527 5.1458 154 116 108
-1.21033 2.31723 5.98458 56 30 26
-2.27723 1.96967 5.77406 66 28 24
-1.94127 2.02601 5.46985 64 33 26
-1.79444 2.48347 5.82093 60 22 20
-1.28705 3.08958 6.40972 155 140 138
-4.22509 -3.65309 6.43855 162 160 104
-1.8809 -3.45345 7.54063 76 88 51
-2.62038 -2.00771 6.46461 172 175 120
0.705735 -0.698846 5.5877 69 60 14
0.358396 -0.518816 5.9341 163 176 132
-3.77383 -1.63208 7.19143 158 156 102
-2.65858 -1.26053 7.28772 165 170 120
-3.16388 -0.876309 7.41279 164 167 116
-0.524001 0.209855 5.71715 33 11 4
0.247093 0.664414 4.79993 108 122 77
-2.20067 2.87631 6.86869 65 24 20
-3.0908 -2.30661 6.29276 58 64 38
-2.7776 -1.80331 6.42145 63 67 43
-2.1917 -1.57865 6.43269 175 180 127
-3.56124 -1.34857 7.14774 162 162 110
-2.414 -0.847712 5.46349 94 98 54
-0.302539 0.741974 5.03135 172 170 158
-1.88602 0.515421 5.12426 10 7 4
-2.10017 0.716316 5.07721 168 140 130
-1.80892 1.09695 4.98887 38 18 12
-1.86571 -1.93377 6.02774 78 92 46
0.125182 -0.26901 5.94659 38 46 18
-1.59626 1.55095 3.42782 170 162 154
-1.94544 -2.11788 6.20321 74 88 44
-3.03184 -2.33581 6.56706 59 64 40
0.0663139 0.123728 5.83279 162 176 130
-1.68885 -0.163533 6.1826 148 147 145
-2.10321 0.680859 4.96853 164 130 122
-1.82485 1.56983 6.79314 64 26 19
-2.15954 -1.60849 6.37114 176 180 128
-1.96118 -0.272754 5.76181 135 132 120
0.716531 -4.01545 7.22918 168 172 116
0.264735 -3.33442 7.12329 169 172 122
-3.75754 -3.01606 6.39397 53 58 32
-0.370008 -1.11909 4.97042 62 70 54
-3.1434 -0.196814 4.10033 90 102 64
-1.95325 0.684607 4.87696 166 128 114
-1.81734 0.932291 4.89286 40 15 8
-1.70787 0.965565 4.94185 36 12 6
-4.5425 -4.28599 6.53741 166 166 117
-4.4557 -4.28158 6.61945 52 60 22
1.55509 -2.28555 3.58037 56 62 29
-4.17805 -3.65583 6.4405 160 158 107
-1.56953 -1.76491 1.9157 59 56 22
-3.85175 -3.05573 6.36178 160 158 106
-0.891451 0.133176 6.51562 32 24 14
-3.45297 0.417291 3.6151 82 88 70
-2.58733 1.43899 5.27431 93 46 29
-2.05509 3.10298 6.32492 142 110 106
1.42256 -2.19376 3.73045 171 172 121
-1.66541 -1.75021 2.69618 60 59 34
-1.55937 -0.470663 5.73665 44 54 37
-2.8961 -0.550818 7.82675 65 40 22
-2.65264 -0.387197 7.63478 81 82 60
-1.65247 -2.77789 7.01979 72 89 47
-3.36139 -2.22368 6.23786 162 163 116
-2.02563 1.32893 5.27089 85 49 43
-1.25733 1.62362 3.45375 175 166 156
-1.57353 -1.81639 2.2998 78 74 45
-0.737756 0.571375 5.32456 21 9 6
-0.00215954 -0.196196 5.92211 34 40 14
-1.32813 1.79678 3.65097 171 163 154
-3.16128 -2.86524 6.50993 166 166 112
-1.65267 -1.75245 6.32442 87 95 49
-3.98083 -1.53268 6.71416 156 154 96
-2.36345 -1.16423 5.97102 55 60 24
-2.92208 0.921614 5.87426 40 11 4
0.388722 -3.4382 7.14164 52 64 22
-3.58897 -3.01139 6.40214 83 86 64
-7.29547 -1.02546 13.6646 106 104 52
-3.5279 -2.66633 6.32358 62 65 42
-0.0618672 0.605218 5.37323 96 117 75
-3.80303 -3.44738 6.47281 82 82 60
-1.61725 -2.90796 7.06745 166 170 116
-1.62377 -2.93468 7.04696 164 168 115
-3.90024 -1.65238 6.97725 157 154 96
-4.54732 -4.47092 6.69027 71 70 34
-1.58859 -2.66044 6.92687 164 170 119
-1.18556 -0.27462 6.008 31 12 6
-1.6181 -2.9956 7.21531 158 164 115
1.3467 1.02967 5.74045 82 102 58
-3.03848 2.4052 7.65793 54 12 3
-2.95539 2.43894 7.71455 132 92 84
1.62145 -2.46811 3.54001 167 169 114
1.45917 -2.09396 3.68614 56 62 34
1.61584 -2.39881 3.54284 55 60 24
1.48397 -2.28832 3.62673 167 170 120
-0.994395 2.45818 6.632 60 31 25
-2.34759 0.338443 6.72983 49 36 27
-1.57526 0.649938 6.27455 54 46 28
-4.34162 -0.740843 5.32574 134 135 80
0.775481 -0.719266 5.7445 70 70 28
-3.51935 -1.68947 7.2128 62 62 29
-2.73385 0.735352 7.63293 174 127 94
-6.09788 0.47055 4.02446 66 61 34
-3.26721 -1.54775 6.81482 164 166 110
-1.54999 1.38907 6.8508 122 83 74
0.41229 -3.47919 7.14107 46 57 18
-1.52491 -1.47812 1.11805 171 174 122
-3.04622 -0.473316 4.49256 117 114 90
-5.89437 0.168896 4.06977 54 53 32
-1.49696 3.08165 6.39582 86 56 53
-1.64148 -3.23514 7.39274 166 170 118
-1.52089 -1.705 1.4667 58 64 20
-5.96236 0.283627 4.02853 59 58 38
-3.10715 -1.82024 6.35091 167 168 119
-1.57642 -2.6992 6.96084 166 169 118
-2.71472 -1.49912 6.50713 58 65 36
-1.82705 1.91323 7.05713 81 42 32
-2.84399 -0.96296 7.79199 56 38 17
-2.04831 -1.03314 5.69773 124 118 74
-2.21901 3.16308 6.51508 135 100 96
-5.75329 0.0147523 4.28197 52 56 32
-0.242784 0.193462 5.11215 124 80 54
-0.573914 0.667151 5.09385 121 72 44
-2.08652 0.340108 4.90863 12 12 8
-3.35002 0.28439 5.68971 156 110 80
-1.81023 0.807568 4.73522 160 121 105
-5.97579 0.19739 4.09745 168 159 148
-2.23711 -2.44039 5.60145 74 86 44
-3.4496 0.156969 5.96363 139 97 66
-3.22259 -1.24661 7.0798 44 37 18
-3.17783 1.04806 7.82481 92 52 32
-2.11889 -2.0481 6.27114 88 92 46
-0.723981 2.23719 6.32643 56 28 22
-4.4366 -4.29155 6.46851 50 56 15
-4.40789 -4.25211 6.55363 40 48 20
1.35951 -2.09278 3.7309 46 52 19
0.112688 -3.02861 7.03232 58 63 24
1.13782 -1.93404 3.9057 75 68 34
-3.90997 -3.36205 6.45764 103 96 74
-3.77232 -3.14905 6.39499 88 86 62
-3.84236 -3.05315 6.33615 148 145 94
-1.47955 -1.38955 0.947057 159 166 118
-1.64079 -2.19374 6.58248 76 86 40
-1.58783 -1.97847 6.45359 164 170 120
-0.282942 -1.27584 4.82063 84 92 70
-1.59063 -1.70839 6.29927 168 172 122
-0.259668 -1.16134 4.8672 154 166 124
-2.44916 -1.7763 6.46147 160 164 113
-2.50942 -1.74724 6.44162 61 64 34
-0.491222 -1.03546 5.06276 48 61 38
-0.741604 -0.955894 5.13564 95 98 86
-1.15538 -0.584243 5.58847 65 62 48
-0.00442768 -0.281707 7.09657 152 166 120
0.173045 -0.170907 7.17404 152 162 122
-0.33942 -0.0301313 7.16833 60 36 23
-1.26826 -0.164421 6.32772 12 7 2
0.165934 0.253681 6.59064 98 75 40
-2.85972 -0.550264 7.76995 60 34 14
-1.6968 -0.140046 6.09062 145 145 146
0.0887414 0.397416 6.2684 108 84 56
-2.7967 -0.350456 7.24209 74 78 57
-3.04841 -0.471891 4.47145 103 104 74
-1.93923 -0.0519827 5.9575 40 46 29
-1.64141 0.0465686 6.25084 116 116 109
-0.300636 0.555068 5.70605 172 147 134
-4.19062 -0.59033 4.65575 60 67 50
-4.63467 -0.550239 4.44058 52 58 40
-1.6802 0.748474 4.8712 83 49 26
-2.171 0.714651 4.81507 103 64 50
-1.68903 1.35566 5.20816 98 71 67
-1.74397 1.54853 5.26355 112 89 88
-1.44115 1.88233 5.61942 28 9 4
-1.93568 1.76416 5.43462 94 52 44
-1.27124 1.715 3.48586 110 72 40
-2.23103 2.03951 5.61126 102 59 54
-2.42573 2.89897 6.29636 72 26 14
-2.21361 3.03168 6.39518 68 24 19
1.71523 -2.33127 3.59754 60 65 38
-2.02839 -3.99112 8.06536 157 158 108
1.45274 -2.08946 3.67958 49 62 35
1.37279 -2.04172 3.91642 46 48 21
-1.64918 -1.45472 6.17241 66 78 30
-2.12393 -1.33725 6.22276 157 162 118
-3.83252 -1.80075 7.53086 48 52 22
-3.53369 -1.61243 7.41359 42 44 20
-2.78488 -1.33415 6.07114 54 60 29
-2.87238 -1.37414 7.64008 159 160 110
-2.73363 -1.25887 6.05361 57 61 35
0.118117 -0.189479 5.68664 40 46 14
-2.01624 -0.760774 5.41656 30 40 16
-3.59252 -1.12995 6.71015 124 84 52
-2.89683 -0.804668 7.45553 52 30 10
-1.81049 -0.458837 5.91572 120 118 112
-0.0903353 0.136357 5.08847 129 86 68
-0.50083 0.12363 7.05207 18 8 4
-3.5631 -0.780932 6.38889 97 63 34
0.114909 0.33452 6.14283 92 58 24
-1.60388 -0.0514943 6.0885 59 63 47
-0.0284274 0.73586 5.57967 162 157 146
-3.70487 -0.342431 6.25426 98 58 38
-4.66944 -0.687095 4.58979 60 67 33
-0.610721 0.61907 5.24824 150 101 74
-3.73405 -0.259479 6.26946 158 146 122
-0.723622 0.676702 5.30446 26 10 2
-0.826729 0.709525 5.10344 131 106 92
-3.68809 -0.0762327 6.29296 102 58 42
-4.74404 -0.552391 4.3455 40 54 34
-4.85336 -0.528065 4.30927 43 55 34
-4.78545 -0.496386 4.33555 156 146 126
-3.66054 0.0544505 6.29202 94 50 26
-2.19846 0.432883 4.68456 13 7 4
-4.97956 -0.439441 4.28571 157 147 124
-2.20545 0.558253 4.82675 40 18 12
-1.62103 1.12403 5.00045 19 7 3
-2.56792 0.867097 5.10189 52 14 6
-1.62383 1.25453 5.12442 80 46 44
-2.29492 1.17188 5.21367 48 18 14
-1.68957 1.54997 5.21995 58 32 27
-1.56721 1.86716 5.53184 22 9 6
-2.39894 1.71158 5.53632 96 52 38
-2.12598 1.92254 5.62742 48 14 12
-1.39224 2.61906 6.0842 60 28 24
-2.7254 2.40019 6.34811 110 50 32
-2.80639 2.57227 6.57992 122 88 80
-1.49983 3.16109 6.79493 60 24 24
-2.97456 2.62243 6.86767 52 15 10
-1.65053 3.14707 6.38693 136 116 112
-2.61805 2.95677 6.62827 74 25 18
-2.47589 3.00719 6.21971 107 68 48
-2.53864 0.589347 4.80947 170 120 94
-2.0255 2.36729 5.75221 98 58 56
1.20598 -2.00884 4.03894 160 164 109
-3.10602 -1.90485 6.23149 68 68 46
-1.53494 -0.191143 6.12826 49 58 44
-2.36254 1.78593 5.61333 90 45 33
-4.40031 -4.10464 6.38153 50 56 25
1.66948 -2.28805 3.6768 54 60 28
1.51338 -2.13691 4.01554 160 164 110
1.3987 -2.04427 3.93648 46 48 23
0.101625 -2.85998 6.88662 42 56 22
-3.79461 -3.44708 6.51094 50 52 30
-3.34834 -2.98564 6.4367 154 153 98
-3.03042 -2.18457 6.33334 69 70 46
-3.12202 -1.81201 6.21701 156 158 108
-3.81601 -1.80771 7.5405 53 56 23
-3.23106 -1.55485 6.82134 154 155 103
0.428805 -0.438345 5.73664 35 32 9
-3.29548 -1.2067 6.84653 46 33 16
-3.10712 -1.04176 7.4708 60 32 18
-1.81034 -0.310749 5.89974 81 81 64
-2.82845 -0.496389 7.67139 170 157 138
-2.68808 -0.366224 7.6671 65 68 42
-3.46305 -0.386373 2.85816 88 97 66
-2.13649 0.351965 4.92117 10 8 6
-4.85271 -0.544105 4.28935 42 54 33
-3.22599 0.016523 3.84763 110 116 92
-1.69137 0.693784 4.90045 32 13 8
-1.81962 0.712774 4.88079 142 100 79
-2.38735 0.560708 4.96836 37 12 5
-1.43556 1.12924 5.02041 44 15 13
-2.42966 0.872259 5.06367 66 28 20
-2.56294 0.871666 5.13551 58 18 10
-2.28333 0.957702 5.07254 30 10 6
-2.44225 1.11894 5.22603 53 18 14
-2.28561 1.16798 5.19577 49 19 16
-2.01002 1.36618 5.32785 80 42 35
-1.82501 1.56984 5.3059 56 24 21
-1.22853 1.56683 3.53578 165 154 142
-2.46223 1.58634 5.47925 64 28 18
-1.29979 1.84772 3.47729 74 40 14
-2.28183 2.3057 5.63975 108 60 54
-2.46245 2.56222 6.08803 60 20 14
-2.85963 2.81993 6.7282 50 15 10
-2.30168 2.93878 6.2575 73 27 20
-2.61828 2.95081 6.62276 74 25 18
-2.24889 3.07281 6.32039 146 109 102
-2.4236 3.12262 6.45437 110 70 50
0.54799 -0.496764 5.91254 45 50 12
-2.7595 -1.32668 6.11688 53 59 28
0.486687 -0.410993 6.22687 151 166 120
-2.73148 -1.0771 7.19273 44 48 18
0.15958 -0.182843 5.76074 40 46 14
-2.58695 -0.921295 7.17411 38 42 17
-1.85931 -0.185795 5.99966 138 134 128
-4.52237 -0.606427 4.44858 40 52 33
-4.56697 -0.533757 4.43231 155 146 122
-4.67499 -0.517892 4.38539 158 152 128
-3.22944 0.186143 3.9412 20 30 13
-2.65183 0.698098 5.0035 165 112 84
-2.52009 0.759366 4.97467 160 113 91
-2.59618 1.44339 5.31101 89 40 25
-2.29778 2.58036 6.03483 78 27 22
-2.7793 2.85521 6.56333 74 26 15
-2.5331 3.06511 6.44058 129 82 65
-4.45063 -4.26212 6.38094 42 52 20
-4.29054 -4.24901 6.57072 158 158 102
-4.43684 -4.01489 6.42537 154 152 96
1.54533 -2.13767 3.5714 159 166 111
-3.95453 -3.46664 6.44083 45 48 28
-3.27271 -1.65932 7.49691 154 154 100
-3.09798 -1.50822 7.26644 152 154 102
0.215409 -0.193101 5.54311 152 166 119
0.454395 -0.128034 5.3597 162 166 126
-3.60097 -0.980575 6.59655 134 90 63
-1.81812 -0.471783 5.89684 111 110 103
-1.65379 -0.396146 5.85378 44 56 36
-0.172504 0.250628 4.99525 160 152 127
-1.68954 0.0780282 6.19219 122 121 114
-4.99667 -0.55256 4.30128 42 54 32
-4.77006 -0.475621 4.52823 160 149 128
-3.44753 0.408806 6.96724 74 34 16
-2.42573 0.531358 4.92884 48 18 10
-1.67687 0.777689 4.48034 150 130 128
-1.80081 0.814636 4.79516 155 112 96
-2.65608 0.628906 5.08465 167 116 88
-1.64669 0.932461 4.97235 154 121 110
-1.83145 1.34316 5.18451 50 22 18
-1.7317 1.52481 5.31306 76 45 40
-1.6518 1.81188 5.39032 26 10 8
-2.60804 1.48878 5.4458 91 43 26
-2.38673 1.70519 5.53222 98 54 41
-2.4333 2.02041 5.85327 94 42 26
-2.66339 3.10964 6.65137 143 116 114
-2.27225 1.94385 5.71901 55 20 15
-1.91959 -4.49273 8.73708 70 77 28
1.53474 -2.30854 3.70286 157 162 106
0.222255 -2.83065 7.63042 107 112 66
-2.73586 -1.05255 7.22679 40 43 20
-0.0100547 -0.267557 6.46507 150 165 121
-2.48017 3.10709 6.42587 125 77 62
-4.18933 -3.88651 6.47702 42 49 27
-0.245644 -2.57637 5.62573 66 76 28
-2.27147 -2.9296 6.93931 158 162 106
-1.75993 -2.2032 6.60063 65 80 37
-1.76799 -1.90867 6.39102 70 83 40
-3.40506 -2.21014 6.24329 156 155 103
-3.05975 -1.77754 6.85182 156 158 105
-2.56831 -1.28238 6.84875 58 64 34
-0.625358 0.0858477 6.35786 40 40 18
-2.82428 -0.3638 7.17945 68 71 50
-1.32197 0.165185 6.57253 10 6 3
-2.32531 0.204779 5.06936 28 18 9
-2.17406 0.472666 4.65676 14 5 2
-1.80811 0.636508 4.7894 37 15 9
-1.81887 1.04306 5.03213 76 32 24
-2.24308 0.9438 5.0279 37 14 10
-5.71097 -0.266556 4.00865 164 152 138
-2.59773 1.59248 5.6599 90 41 27
-5.98691 0.305731 4.0391 52 50 26
0.223167 -2.916 5.71945 62 74 33
-3.9538 -3.74167 6.42825 152 152 94
-0.0583997 -2.59942 5.58818 164 169 116
-0.406684 -2.29986 5.67993 164 169 116
-4.38069 -0.467108 4.59307 158 149 122
-2.28624 0.882261 4.98756 60 30 26
-2.49733 0.945249 5.15376 66 26 20
-5.99646 0.129455 4.01994 162 152 140
-2.59782 2.86583 6.57652 80 28 18
0.739822 -0.399495 5.67086 158 170 121
-1.68815 -0.147541 6.15659 140 140 140
-1.33058 0.0514117 6.34098 12 5 2
-0.394552 0.572066 5.169 140 92 76
-1.98104 0.708033 5.0091 162 127 115
-2.50862 1.0237 5.37553 66 26 18
-2.66425 1.55549 5.60927 88 40 27
-5.80721 0.0330794 4.03732 52 56 32
-0.117308 0.140387 6.51166 30 29 12
-0.327629 0.608592 5.2094 174 138 132
-1.32258 0.35987 5.86332 32 36 18
-1.75306 1.17156 5.16176 36 10 6
-1.10117 -0.0546281 6.36012 18 6 4
0.852534 -4.16469 7.22552 76 82 29
1.74709 -2.74022 3.4137 156 158 105
1.5953 -2.25336 3.55397 58 60 30
-3.05835 -2.59315 6.47199 156 158 107
-3.22608 -2.12964 6.31899 60 60 34
-2.53166 -1.45264 6.24832 88 88 62
-2.18515 0.836607 5.08851 150 112 101
-5.90703 0.181404 3.98277 46 44 24
-2.41449 2.86677 6.18591 102 57 46
-4.43838 -4.25429 6.58371 38 48 19
1.57023 -2.24046 3.57975 56 63 34
1.26347 -1.96639 3.83638 46 49 22
-3.58425 -2.83369 6.31375 83 80 52
0.464156 -0.117667 5.37982 152 162 123
-5.25184 -0.321225 4.15429 154 146 127
-2.41183 0.934966 5.13252 39 8 3
1.52877 -2.15117 3.55491 151 156 108
-1.68505 -3.04051 7.23753 62 78 42
-1.58558 -2.69098 6.92716 158 164 110
-1.70139 -3.03616 7.26742 60 76 38
-3.35518 -2.36411 6.20529 60 63 43
-3.41472 -1.65369 7.32252 52 54 24
-4.57974 -0.525218 4.43306 158 149 124
-4.88706 -0.458822 4.28373 158 148 126
-2.52164 1.34309 5.27943 66 25 20
0.383334 -3.22846 7.36768 46 58 22
-2.31055 -1.07891 7.03329 52 56 24
-4.01579 -3.85399 6.49766 152 150 96
-1.90775 -3.77603 8.26901 111 115 72
-3.26059 -1.50258 6.86159 100 104 64
-2.72646 -1.50458 6.48185 48 54 28
-5.25374 -0.231257 4.04344 162 150 133
-7.25929 -0.965297 14.2565 96 94 40
-1.60719 -2.89042 7.09312 154 160 110
-1.43796 -1.51235 2.89508 48 53 22
-0.515819 -1.73868 6.44084 156 165 114
-3.25349 -2.18933 6.28988 54 56 31
-2.42179 0.859035 5.06545 64 25 18
-6.05455 0.396697 4.00508 56 54 29
-4.40595 -4.04057 6.4778 154 153 104
-5.9261 0.134022 3.98557 158 146 132
-4.80101 -0.920291 4.28366 120 116 58
-0.905597 2.79673 6.51934 93 52 38
-3.21352 -2.18233 6.2813 45 50 26
-4.46149 -4.35824 6.49995 48 55 14
0.243962 -0.027251 5.29026 136 103 84
0.544156 -3.65336 7.22111 39 52 17
-4.30771 -4.24145 6.66525 158 156 102
-2.21231 -1.80865 6.19407 158 161 108
-1.83713 -0.0594488 6.16619 49 54 38
-5.08352 -0.385675 4.46221 158 150 130
-1.8213 2.96271 6.39471 66 30 27
-2.47577 2.35929 5.00338 57 20 15
-0.563555 -1.67408 3.20142 96 100 68
-1.6662 -0.0380229 6.2958 61 65 52
-0.558882 -1.63544 6.41258 158 168 122
-3.11806 -1.79866 6.22264 157 156 107
-2.00266 0.698766 4.90703 166 128 114
-2.85721 -1.3462 6.13124 154 154 108
-2.72264 -1.27301 6.11474 53 58 28
-3.26614 -1.52949 6.56925 155 156 102
-5.93332 1.55367 15.7828 162 153 135
-3.0639 -1.77005 6.19563 77 72 47
-0.732727 -0.840683 5.31557 56 64 50
-8.19295 -1.21863 14.9147 100 102 49
-3.29481 0.0976537 3.77841 82 94 70
-3.37316 0.308045 3.68398 70 71 50
-1.64977 2.91422 6.23799 66 28 27
0.859963 -3.24461 5.88095 158 164 112
-1.71531 -3.65015 7.72136 158 161 109
-2.85651 -1.34197 6.12108 158 159 112
-0.82041 -0.699959 5.46797 159 172 126
-4.55124 -4.47193 6.64309 64 58 22
-2.083 -1.2692 6.49518 60 65 23
1.57781 -2.3881 3.59813 154 161 108
-3.51194 -2.65877 6.32702 49 53 29
-3.36614 -2.2256 6.20567 158 157 110
1.48829 -2.15711 3.64367 50 62 32
-3.49842 -2.46406 6.33596 152 152 99
-3.00322 -1.71868 6.17482 56 60 34
-0.763703 0.0331602 6.14482 44 41 20
-0.736329 -0.198375 6.13557 32 12 6
-1.53152 1.12493 5.03187 30 12 8
-2.70072 2.91425 8.71921 69 24 14
-1.82347 -2.20884 6.71982 66 78 40
-3.30459 -1.7692 6.31209 154 156 102
-2.38623 -0.758132 4.79513 106 112 78
-0.589439 -0.210062 6.80981 39 18 6
0.00130103 -0.0132073 5.12362 130 88 58
-3.51771 0.331271 6.92057 155 144 116
-3.28928 -2.04123 3.39297 158 160 107
-1.74374 -1.30827 5.94614 67 76 26
-2.36744 -1.20198 5.65637 55 63 20
-4.16043 -1.74247 8.0564 148 143 82
0.468757 -0.355374 5.69517 54 38 8
-3.27789 -1.19672 6.92419 44 32 17
-2.60665 -1.01375 7.1405 150 155 102
-0.243635 -0.181006 6.1712 150 162 119
0.186661 -0.03666 5.35009 130 90 60
-1.13772 0.535639 4.88463 16 6 4
-3.35997 0.258638 6.70121 110 68 38
-2.51535 0.342933 4.89794 28 13 9
-3.34357 0.510328 6.2553 40 14 6
-3.37231 1.0955 7.57319 144 132 104
-0.663986 2.07663 6.12222 86 54 39
-1.12324 1.97363 5.76793 46 20 19
-1.29777 1.61208 3.39462 160 150 138
-0.792758 2.8807 6.65634 72 38 27
-1.8486 2.81503 6.14579 115 84 81
-2.76792 -1.1689 7.11399 152 158 106
-1.22346 -0.133551 6.44035 18 8 4
-1.73175 -3.29505 7.4315 66 77 44
-0.13645 -3.77956 11.2274 154 161 108
-2.99954 -2.69144 4.75195 158 162 108
-2.10706 -2.89609 6.99068 65 79 38
-2.1837 -1.36027 6.12373 158 164 113
0.177832 -0.0455593 5.30964 133 92 64
-2.80603 -0.861944 6.87794 34 38 20
-1.9072 -0.0717114 6.01972 52 58 42
-3.20514 0.327257 7.44211 110 68 39
-0.912938 0.845902 5.16471 34 29 11
-0.915593 1.15019 4.44533 152 148 136
-3.34814 0.946946 7.75455 150 136 110
-2.29103 0.889121 5.00446 60 28 26
-3.35339 0.977333 7.39729 60 24 8
-0.596493 1.69601 5.92152 74 41 28
-6.03628 0.513913 4.24711 162 152 142
-1.56655 -1.48672 6.16629 166 170 120
-3.59352 0.230465 6.66855 154 146 122
-1.3601 1.91535 3.83733 94 72 58
-6.06291 0.442837 4.20042 67 64 38
-2.00831 -2.69605 7.01759 68 80 38
-2.25365 -2.29474 6.09271 77 86 36
-1.56552 -1.89067 6.42345 164 171 118
-1.72178 -1.32945 6.08544 73 81 28
-1.98777 -1.23313 5.91558 118 111 74
-2.11256 -1.04227 5.5623 116 109 66
-2.69268 -1.1531 6.26832 153 160 108
-3.01917 -1.07517 7.86373 51 28 12
-0.175081 -0.276961 6.00794 150 167 118
-0.0177299 -0.1049 5.8228 36 44 17
-0.282805 0.166712 5.03592 122 76 50
-0.411675 0.206731 5.90428 28 8 4
-0.975859 0.554344 5.16844 16 7 4
-0.57926 0.863046 5.07417 81 50 30
-0.843781 0.854379 4.98373 163 138 130
-3.24936 0.166155 5.4017 53 16 7
-0.949781 0.998105 4.85815 31 34 15
-3.4083 0.377611 6.10284 72 30 18
-0.620763 1.71929 5.99585 72 41 31
-1.45701 1.69998 5.35473 84 52 47
-1.44277 2.41024 5.87897 102 64 58
-1.54138 -2.17671 6.66374 153 160 106
0.00173897 -0.286549 6.90804 57 36 17
-2.51309 -3.15428 6.27987 116 125 74
-3.27966 -2.93846 6.75972 60 65 37
-2.13786 -1.27899 6.15502 158 162 111
-2.20965 0.48816 4.63621 40 18 12
-0.910566 2.31039 6.05712 73 36 27
-2.36379 -3.01946 6.36897 66 76 36
-2.87036 -2.3211 4.78382 160 162 110
-1.45191 -1.90884 6.70318 160 168 112
-1.73188 -1.84112 6.922 80 88 40
-1.64896 -1.7073 6.30959 80 88 40
-1.69149 -1.33285 6.14614 68 76 25
-3.01993 -0.987811 6.8972 45 42 22
-2.75715 0.279761 4.81177 34 16 10
-0.498402 1.13881 5.27147 160 156 142
-1.3923 -4.06105 9.2108 65 72 34
0.134493 -3.074 6.7629 42 54 21
-3.55033 -2.63188 6.10596 52 56 33
-2.75954 -2.1756 4.9399 156 159 108
-3.30238 0.392412 5.84861 134 88 57
-0.886144 2.32461 6.10544 72 34 25
-4.30961 0.874141 3.0704 56 70 37
-2.38955 3.03707 6.48217 98 54 38
-3.09382 -2.18231 4.11699 159 162 108
-3.03854 -1.64002 6.92212 155 159 104
-4.08454 -0.903569 5.11757 148 150 94
-0.694207 0.407059 5.97724 14 6 4
-0.776143 0.50093 5.31906 20 8 4
-0.259094 1.21206 5.56214 160 156 142
-6.04469 0.229323 4.68671 162 151 140
0.350674 -0.659557 6.07981 151 164 117
-3.72407 0.676333 6.98343 152 143 116
-3.32475 -0.773934 7.14084 147 151 96
1.56539 -2.37515 3.47757 50 54 23
-1.7992 -4.14848 8.21148 159 159 106
-1.97419 -3.93149 8.02381 70 75 41
-4.03966 -3.85707 6.55167 154 152 98
-1.89474 -3.69996 7.71673 76 84 52
-4.13599 -3.76954 6.48666 99 96 78
-3.76102 -3.4742 6.54101 82 83 50
1.12692 -1.88169 3.98254 75 71 50
-3.60246 -3.28369 6.54407 66 65 32
-1.88083 -3.02748 7.17442 96 102 68
-1.50596 -1.74896 1.54676 61 64 22
-3.4214 -2.99414 6.49667 46 55 22
-3.19869 -2.78768 6.52037 147 150 100
-3.21655 -2.47632 6.35388 70 73 52
-1.58944 -2.07691 6.50892 162 167 116
-0.130662 -1.38003 4.67979 73 78 54
-1.69172 -1.49523 3.19928 90 90 84
-2.78103 -2.11532 6.43941 56 62 34
-0.0412597 -1.31942 4.78952 46 57 35
-0.147291 -1.25754 4.8504 46 53 32
-0.225104 -1.20724 4.89061 48 60 44
-1.84708 -1.54341 6.27172 104 111 75
-3.42464 -1.73488 7.56287 150 149 92
-2.17997 -1.06188 6.2287 43 48 14
0.438721 -0.422062 5.9571 48 50 18
0.454215 -0.266888 5.49427 104 69 38
0.0906484 -0.347524 6.98639 68 64 32
0.144674 -0.317733 6.98162 146 160 120
-3.3844 -1.09411 6.91254 103 88 61
-1.98668 -0.629693 5.62645 34 40 22
0.128882 0.0635268 5.11946 124 86 72
-1.2869 -0.229985 6.28284 39 49 38
-0.480032 0.0412778 7.07826 58 39 30
-1.95331 -0.224963 6.29342 62 57 34
-2.04816 -0.104194 5.83966 68 71 55
-2.73904 -0.365643 4.35363 32 40 26
-1.34418 0.26365 6.50178 11 8 2
-3.60328 -0.221805 6.3039 90 59 41
-0.395029 0.587281 5.22093 102 56 38
-1.29423 0.388387 5.57397 43 45 28
-0.515438 0.641781 5.20883 111 70 44
-4.90734 -0.650405 4.49775 160 148 123
-0.649155 0.688153 5.22469 87 49 18
-2.50145 0.26365 5.11488 15 8 4
-2.28776 0.335448 4.76031 46 16 5
-2.49093 0.327068 5.1751 82 52 44
-5.10289 -0.395245 4.2594 156 148 129
-3.29345 0.0984438 3.78667 84 98 76
-2.8222 0.462545 5.20776 164 118 90
-1.61841 0.964595 4.8909 48 14 9
-1.69519 1.08323 4.96189 112 86 83
-2.86764 0.802075 5.35329 132 86 74
-2.35117 0.919373 5.09487 83 46 39
-2.41592 1.11679 5.2111 54 19 14
-2.36442 1.12264 5.1832 110 88 82
-2.91507 1.04669 5.55375 110 64 56
-2.87496 2.15415 6.33511 125 95 88
-2.33539 2.23044 5.8323 58 14 7
-1.41288 3.0541 6.44784 105 76 74
-2.73629 2.6496 6.66121 67 20 14
-2.28585 3.05702 6.38592 139 93 80
0.541331 -3.20567 5.90573 154 160 104
0.466886 -3.10051 5.79655 62 73 30
-2.00178 -4.15313 8.31473 156 152 100
-4.29675 -3.95454 6.49589 50 57 29
1.48773 -2.15024 3.63194 50 58 30
1.34222 -1.95058 3.81405 152 158 109
-3.70583 -3.44687 6.57663 150 150 96
1.16753 -1.96393 4.0749 60 60 26
1.20047 -1.86487 3.92082 163 166 116
-1.60193 -2.98758 7.24486 152 161 110
-3.55498 -2.92523 6.3952 41 46 26
-3.3444 -2.79286 6.45638 44 52 28
-2.71105 -2.16669 6.56141 156 159 107
-3.34681 -2.24733 6.27049 152 148 100
-0.683339 -1.07346 4.9578 28 32 18
-2.22509 -1.33401 6.38758 48 56 23
-1.01415 -0.817179 5.27506 34 38 22
-2.93551 -1.33274 7.04432 154 154 100
-2.31296 -1.00371 5.59318 90 90 47
-1.97457 -0.901264 4.88731 44 49 26
0.374381 -0.348306 6.15739 34 38 6
0.685202 -0.255366 5.7146 155 162 121
-1.01082 -0.527932 5.71725 153 165 120
-1.21811 -0.417079 5.82156 46 16 10
-1.58694 -0.475223 5.60552 33 44 28
-3.62281 -0.952116 6.56015 130 82 54
-1.7972 -0.455527 5.95048 114 115 108
-3.51368 -0.841778 6.42727 148 146 91
-1.97574 -0.385396 6.13823 106 102 84
-1.48879 -0.246641 6.16823 39 52 36
-1.51533 -0.0607108 6.26125 44 56 38
-1.82356 -0.0677683 5.94391 58 66 52
-4.13432 -0.703424 4.63789 70 72 47
-0.279302 0.36938 5.078 186 149 148
-2.86139 -0.334879 4.21105 112 121 91
-0.361445 0.400873 5.1877 117 72 42
-3.5724 -0.321129 6.319 88 60 44
-0.151813 0.563255 5.17048 86 106 61
-4.37568 -0.609346 4.54373 38 48 32
-2.71755 -0.112343 4.44195 32 30 21
-0.475962 0.566823 5.21014 168 118 98
-4.52361 -0.586794 4.4963 42 50 30
-3.55105 -0.164441 6.33546 136 90 68
-4.66714 -0.585098 4.34568 38 48 29
-4.56739 -0.529661 4.43708 155 146 123
-3.60044 -0.0922469 6.30681 114 69 37
-1.22458 0.465132 5.02257 22 10 8
-3.56539 0.0354518 6.51828 140 94 66
-3.05782 -0.0667479 3.96844 24 36 13
-2.44228 0.249618 5.07278 73 52 41
-2.34243 0.291731 4.83993 14 6 4
-4.96476 -0.489526 4.30905 42 53 33
-0.814728 0.822183 4.95536 162 138 130
-0.709571 0.876612 5.034 155 125 114
-3.22509 0.0202988 3.85326 116 120 94
-3.14648 0.0792661 3.96098 20 32 14
-3.12596 0.196419 3.99959 184 133 101
-3.192 0.272192 3.96506 170 116 89
-3.34879 0.254049 3.74312 16 25 12
-2.25814 0.761272 4.82316 153 111 101
-5.50226 -0.298285 4.14766 44 48 23
-2.52294 0.749647 4.96287 167 118 96
-2.42185 0.853197 5.0584 68 25 18
-1.44513 1.37 5.2235 36 13 8
-5.65602 -0.140052 4.10411 40 39 22
-2.96311 1.11864 5.77316 19 6 4
-2.88101 1.11967 5.54699 36 8 4
-1.8502 1.38723 5.29091 45 15 10
-1.58386 1.5237 5.4528 83 50 46
-2.81009 1.39908 5.66437 33 7 0
-2.90801 1.48592 5.80321 88 40 24
-4.0443 0.564899 3.37676 146 132 108
-2.92175 1.7678 6.19521 125 98 93
-2.86356 1.82071 6.15806 59 20 14
-1.79506 2.03295 5.55791 120 104 104
-1.86891 2.09542 5.60768 57 22 18
-6.0421 0.328565 3.9307 160 148 136
-2.81369 2.23652 6.34436 84 24 14
-2.06269 2.47175 5.96532 106 58 52
-3.04421 2.72517 7.28939 136 96 78
-2.88961 2.58249 6.59436 44 12 7
-1.1914 3.21144 6.65559 146 127 124
-1.77704 2.85504 6.14375 66 30 30
-4.09411 1.06493 3.08192 66 62 26
-2.74927 2.6616 6.56915 58 16 10
-2.86484 2.81335 6.69435 48 16 10
-2.51258 3.08649 6.56664 116 70 53
-3.08861 -1.46801 7.04078 154 154 98
0.156535 -0.304857 6.03434 46 54 18
-3.42186 -1.01628 6.75694 151 148 94
-1.78573 0.858207 4.77488 160 116 100
-6.07738 0.411011 4.06691 54 50 27
1.54515 -2.32034 3.3806 59 67 42
0.469376 -3.09524 5.8134 65 78 34
-4.41102 -4.03952 6.49991 150 150 100
0.693436 -3.03573 6.78676 59 72 32
-4.19499 -3.81793 6.45456 40 49 25
-3.54376 -2.93279 6.38835 40 45 24
-3.32625 -2.90411 6.54373 47 52 24
-3.39123 -2.58797 6.3888 40 45 22
-3.39727 -2.42527 6.23353 63 63 41
-2.97886 -2.33244 6.42414 38 51 26
-3.45215 -1.60953 6.65521 52 52 18
0.536205 -0.609767 5.82427 150 164 118
-1.97962 -1.09883 6.09885 120 112 70
0.424006 -0.490705 5.90101 148 164 118
-0.969208 -0.733302 5.36101 47 50 34
-2.30188 -0.99948 5.68163 92 92 50
0.347996 -0.349614 6.08959 33 36 5
-1.81051 -0.663137 5.55905 42 52 38
-0.578077 -0.174163 6.31723 47 24 15
0.0394255 0.140676 5.1018 132 94 76
-1.38581 -0.0968138 6.31336 51 60 48
-1.95731 -0.0882738 5.89307 44 50 34
-2.86683 -0.339504 4.19461 102 110 79
-4.23367 -0.630738 4.57917 33 47 30
7.19652 3.09291 11.6193 113 125 80
-4.39301 -0.632741 4.50091 40 52 34
-1.70405 0.258021 6.07778 25 26 13
-4.32762 -0.552014 4.58849 156 147 125
-3.73736 -0.264312 6.29925 156 144 118
-4.71936 -0.636582 4.42526 40 50 28
-4.43257 -0.549506 4.48381 158 150 126
-0.601173 0.612066 5.23775 155 106 80
-3.63603 -0.0960061 6.24263 108 68 43
-0.388622 0.949382 5.47313 65 30 13
-4.89288 -0.461634 4.33875 157 147 128
-2.41244 0.37234 4.76415 15 7 4
-2.32355 0.42183 4.67731 97 64 52
-3.11752 0.202519 4.01497 183 130 98
-2.28037 0.880489 5.03448 56 24 22
-2.87583 1.12319 5.54712 36 8 4
-1.66864 1.54838 5.22355 62 32 28
-2.61917 1.34346 5.53864 32 6 2
-2.91586 1.47352 5.77993 86 38 22
-1.57309 1.86186 5.51663 28 12 10
-1.6942 1.8197 5.39198 29 11 9
-2.83748 1.60634 5.86931 42 11 6
-2.09941 1.77962 5.46305 94 56 50
-4.19443 0.87535 3.16207 152 142 133
-2.75431 2.38176 6.29505 110 49 31
-1.20148 3.19464 6.59311 146 130 129
-4.09694 1.05723 3.03363 66 62 26
1.52049 -2.38866 3.49882 157 160 101
-1.80481 -3.70223 7.75228 60 72 38
-1.76879 -3.52381 7.6326 62 76 40
0.112151 -3.03104 6.99513 58 64 27
-1.67863 -3.44672 7.5687 158 158 108
-4.08191 -3.48865 6.43831 143 142 87
1.19912 -1.85735 3.92614 158 160 113
-1.58604 -2.47815 6.77933 155 164 112
-3.03145 -1.69673 5.9303 60 62 38
-2.99815 -1.58842 6.1663 152 150 100
-2.90614 -1.53017 6.11692 54 57 34
0.20618 -0.289454 6.15819 39 48 13
-1.99745 -0.665693 5.66114 34 40 20
-0.992537 -0.356578 6.07542 36 12 6
-0.22669 0.141659 5.27088 138 127 91
-4.24683 -0.796257 4.76894 132 127 68
-4.42473 -0.7057 4.54821 53 60 39
-4.78687 -0.486962 4.40267 154 144 124
-2.2442 0.674795 4.84975 164 133 130
-4.32866 0.901995 3.11093 54 67 34
-4.3452 0.983845 3.11573 154 144 134
1.3725 -2.20846 3.69228 160 164 109
-4.19535 -3.88119 6.44744 41 49 26
1.32673 -2.05974 4.08846 158 164 106
1.21443 -1.8458 3.94347 162 168 112
-2.32574 -1.46011 6.45146 46 55 20
-0.799141 -0.90338 5.25703 33 39 26
-4.11895 -1.69792 7.92174 147 142 82
-2.15878 -1.1248 6.08814 40 49 14
-3.20588 -1.37069 7.2277 44 42 22
-3.14579 -1.07534 7.26063 52 31 14
-1.97772 -0.692907 5.62174 32 38 21
-1.56743 -0.485664 5.71144 32 44 28
-0.831517 -0.300422 6.19329 33 10 2
-1.95806 -0.0703673 5.94775 44 50 35
-0.307646 0.399366 5.59319 46 22 11
-4.53083 -0.64168 4.44468 41 52 32
-1.73832 0.2652 6.10593 24 26 14
-4.4276 -0.525735 4.84477 157 149 124
-4.88404 -0.547527 4.72849 40 52 30
-0.260437 0.862865 5.34023 157 154 142
-1.50593 0.749678 6.30596 6 4 2
-2.48788 0.398184 5.21771 88 60 48
-2.33576 0.403982 4.62542 92 58 44
-0.593531 1.11124 5.32082 73 48 40
-2.25249 1.1677 5.17612 50 18 15
-2.59806 1.35096 5.52418 33 7 2
-2.11754 1.77565 5.48198 98 58 52
-1.69579 2.52775 5.90546 74 32 30
-1.72902 2.87501 6.1078 66 28 28
-1.64453 3.18016 6.43057 142 120 120
-2.10071 3.05253 6.4357 65 22 17
0.0646342 -2.75012 5.71718 64 81 42
-3.66891 -3.40891 6.48742 150 150 90
-2.45257 -1.8424 6.54453 157 160 107
-3.14407 -1.80275 6.18886 150 147 94
0.41768 -0.503554 5.96881 152 166 120
0.310742 -3.35049 7.08507 50 59 22
-3.9332 -3.52573 6.49568 45 50 28
0.372667 -3.04556 8.31082 156 162 107
-0.37773 -1.30781 4.99174 50 55 26
-3.03014 -1.99374 6.27644 46 51 26
-2.18017 -1.39509 6.25921 153 158 105
-3.52708 -1.65241 6.69306 50 52 20
-1.96766 -0.718293 5.52527 29 34 20
-1.61443 -0.403334 5.91018 39 52 34
-4.15575 -0.804875 4.77642 137 130 68
5.64659 2.33299 11.0782 158 167 116
-1.67392 0.0889711 6.24714 114 114 109
5.49841 2.61621 11.8385 91 106 57
7.03731 3.04221 11.5119 112 124 76
-3.08637 -0.0785202 3.66992 28 34 15
-2.45382 1.47675 5.42319 62 24 16
-2.82446 2.81469 6.83655 50 16 13
-1.87246 3.11516 6.47195 66 27 26
-4.23063 -3.65274 6.46376 148 146 91
-1.68843 -3.45512 7.57599 156 157 107
-2.99793 -1.72753 6.17888 50 54 32
-3.70615 -1.83505 8.02609 62 62 28
-1.95217 -0.460839 5.91238 104 100 85
-3.80597 -0.314728 6.50036 158 145 118
-5.33628 -0.227419 4.18662 164 152 136
-5.5398 -0.0833078 4.28221 166 154 140
-2.75992 1.27093 5.7497 80 36 24
-4.30336 0.876151 3.09696 55 66 38
-1.45897 3.12039 6.58071 94 61 57
-0.926089 -0.544584 5.46347 150 164 119
-3.30232 -0.855054 6.51501 151 152 98
-4.40959 -0.614695 4.6243 43 54 36
-4.85325 -0.430887 4.28863 161 150 129
-2.56946 1.93562 5.94365 69 22 13
5.18074 2.38102 11.2966 130 145 100
-2.76139 -1.91006 6.3048 44 52 27
-3.78341 -1.7859 7.47009 60 61 30
-1.0314 -0.172148 6.23428 20 6 4
-3.54087 -2.3073 6.09458 150 150 94
0.27954 0.270149 5.05226 143 162 118
-1.79133 -0.211025 6.07135 122 120 118
-3.93217 -3.56599 6.47961 80 85 64
-3.67067 -3.24312 6.4372 44 48 26
-1.87942 -2.14942 6.54382 89 100 60
-3.24045 -2.15446 6.36114 52 55 31
-0.189829 -0.192602 7.26513 136 126 103
-2.66979 -0.411579 4.48495 40 49 34
-2.64453 0.683138 4.9247 164 112 83
-2.40735 0.927107 5.07059 36 6 4
-2.37105 1.81413 5.61554 93 46 36
-5.96646 0.302128 4.04721 52 50 26
-1.32155 3.10638 6.50882 82 52 50
-2.4205 3.11747 6.45882 108 65 46
-1.58539 -2.68205 6.94886 154 157 105
-4.33613 -0.549469 4.59563 159 150 128
-5.02146 -0.564991 4.3313 48 52 30
-2.48534 0.377743 4.98275 50 33 28
-1.81487 1.56473 5.2806 50 19 14
-2.07027 1.79515 5.54945 94 55 46
-1.49707 3.13335 6.47991 75 47 44
-3.63245 -0.978408 6.64226 124 76 50
-4.84075 -0.950121 2.86069 104 104 47
-4.74013 -0.542913 4.40451 38 46 29
-5.01386 -0.558246 4.35559 42 50 28
-1.87953 2.08513 5.61245 57 24 21
-4.1823 0.791969 3.18297 59 64 36
-3.50764 -2.47984 6.35583 149 146 89
-0.207112 -0.33868 6.55301 94 91 61
-1.61263 -3.69986 7.66457 158 159 104
-1.72761 -3.54464 7.4421 155 156 104
0.6692 0.861589 5.95884 74 94 50
-1.70378 2.86162 6.09296 62 24 24
-1.6147 3.25753 6.37555 143 126 126
0.401914 -0.536913 5.97799 149 164 119
-4.55295 -0.710264 4.89863 58 62 32
1.80146 -2.88296 3.31376 68 70 34
1.80334 -2.82145 3.31411 70 77 46
-5.43744 -0.362176 4.18029 56 58 36
-2.8214 -1.25598 5.50913 152 152 102
-1.77364 -4.00003 7.98311 157 157 106
0.265455 0.942622 6.21283 153 152 140
-3.78542 -1.60286 7.10045 147 144 82
-0.593077 -0.462948 5.95803 154 168 119
1.68498 -2.63687 3.41581 156 157 106
1.7503 -2.47335 3.41911 142 150 103
-0.789764 2.8957 6.65321 72 38 28
-4.89499 -0.682022 4.70229 164 152 130
-4.70403 -0.545128 4.96414 42 52 35
-3.41659 -2.34726 6.26369 150 148 97
-3.21804 -2.10124 6.22091 53 54 33
-0.412647 -1.36615 5.28208 154 160 112
0.800205 -3.2561 5.92594 76 87 48
1.51503 -2.12744 3.69068 44 55 22
-1.14089 -1.73174 4.4114 100 99 59
-5.48257 -0.219544 4.10203 38 48 28
-3.31634 -1.51607 6.79571 50 52 23
-3.00393 -1.71538 6.17584 50 52 32
-2.77431 -1.30775 6.9004 152 152 100
-1.89821 -3.29096 7.3555 99 104 74
-1.4844 -1.68991 1.68191 46 50 22
-1.67906 -3.04775 7.24438 70 82 47
-1.39836 0.212851 6.50616 8 5 3
-2.57348 0.345251 4.92246 49 34 28
-5.51879 -0.279932 4.06407 46 50 27
-1.83037 1.82209 5.45132 58 24 16
-1.17946 2.61959 6.17428 42 16 9
-1.54616 2.79867 6.19101 102 63 60
-2.81429 2.77781 6.31508 68 24 14
-3.51178 -2.64932 6.34654 48 52 29
-1.75792 0.561718 5.09257 14 8 4
1.01621 -1.79033 4.08308 162 166 120
-0.462668 -0.957706 5.21021 158 169 123
0.698836 -0.628221 5.59427 80 78 34
-0.579243 -0.870463 5.26174 162 173 122
-0.717321 -0.765038 5.37859 160 171 126
-3.382 -1.67231 6.44466 153 152 96
0.0604647 -0.101079 5.97665 42 46 18
-4.17724 -0.581346 5.51351 92 96 58
-3.33713 -1.68207 6.47186 154 154 98
-2.04302 0.0837882 7.09836 26 32 19
-2.13781 -2.5556 6.70317 154 157 108
-0.232621 -1.41759 5.33891 82 86 42
-1.74802 -1.48258 6.26501 100 101 58
-3.08698 -1.49437 7.38452 153 156 102
-3.2921 -1.34536 7.34982 42 32 13
-2.73284 -1.14861 7.22109 157 164 112
0.11569 -0.327802 6.08299 153 166 120
-1.88569 -0.626116 5.55779 43 52 40
0.0267161 0.167083 5.11292 116 78 60
-0.410174 0.457176 5.26521 89 43 12
4.47383 2.24536 10.2639 90 105 54
-1.00863 0.683431 5.05797 24 12 5
-0.939357 0.744454 5.0892 114 83 64
-3.6284 0.160867 6.31421 160 146 116
-2.88192 1.77228 6.12291 53 16 12
-4.40419 0.986676 3.10301 58 64 31
1.65169 -2.42447 3.41815 63 68 38
-0.0317707 -1.51111 4.93292 60 66 30
-1.34073 -1.59301 3.52382 78 80 73
-2.57146 -1.87719 6.51991 58 66 36
-2.30237 -1.59528 6.48425 159 164 113
-2.29012 -1.50257 6.495 50 58 20
-2.4372 -1.3232 6.25406 87 88 59
-2.72851 -0.89303 5.02042 155 159 110
-0.0818882 0.0462759 5.11913 146 107 83
-0.50618 0.527608 5.38205 45 19 8
-0.882474 0.765955 5.05268 49 25 10
-0.565585 1.20636 5.47235 51 24 16
-1.48734 0.880956 4.81535 154 136 134
-1.43039 0.89895 4.66565 35 34 16
-1.72457 2.11658 5.62284 46 17 14
-2.76015 2.00106 6.12477 103 44 28
-4.33019 0.921455 3.11946 54 66 36
-2.98816 -1.02078 4.05492 158 158 114
-1.94828 0.687167 4.88114 162 122 102
0.568694 -3.5151 7.14717 160 164 114
-1.85095 -3.86216 7.9073 68 72 40
1.38319 -2.03778 3.74587 43 52 23
1.14013 -2.00236 4.17079 156 162 105
-0.358379 -1.0463 5.04535 150 160 118
-2.17631 -1.46275 6.52388 158 162 110
-2.16521 -1.34928 6.13651 158 162 114
-2.76629 -1.22113 7.3374 156 159 106
0.231718 -0.384781 6.069 151 170 120
0.0836302 -0.32692 6.10013 151 165 117
-2.00845 -0.753582 5.45458 28 36 16
-0.240721 -0.0617373 6.11674 32 32 13
-0.212492 0.204925 4.93467 176 144 132
-0.436171 0.53745 5.3006 152 104 84
-1.26112 1.00856 5.06297 30 32 12
-3.00098 0.827153 5.48216 40 13 6
-2.92465 1.37146 5.9094 16 8 5
-2.94081 1.51865 5.99475 89 40 24
-2.85354 1.82299 6.12862 56 19 12
-5.96244 0.290532 3.95311 48 46 22
-1.34463 2.46659 5.95686 102 68 66
-1.90854 2.31695 5.80689 76 27 23
-2.79453 2.24669 6.36677 78 21 9
0.617436 -3.67935 7.37211 37 52 16
-1.72751 -3.30078 7.45609 66 80 46
-2.87367 -2.25209 6.46992 50 58 34
-2.72573 -2.08006 6.54054 54 60 35
-2.70011 -1.9258 6.45126 46 56 28
-2.43343 -1.705 6.58317 52 64 28
-2.85549 -1.35828 6.17237 155 155 110
-3.36928 -1.48811 7.07162 46 50 22
-2.91369 -1.35884 7.33746 154 156 102
-2.61091 -1.04097 7.21604 156 160 108
-1.93328 -2.89716 7.18788 54 70 28
-1.66217 -2.29049 6.61347 72 87 44
-1.72651 -1.92646 6.41194 70 84 40
-2.58448 -2.02039 6.54292 157 160 107
